1811,0,1833,1833,1833,1835,1835,1862,1862,1876,1876,1878,1879,1879,1879,1861,1861,1861,1878,1878,0,0,0,0,0,0,0,0,0,0,0,0,0,0,0,0,0,0,0,0,0,0,0,0,0,0,0,0,0,0,0,0,0,0,0,0,0,0,0,0,2061,2061,2061,0,2063,2063,2063,0,0,0,0,0,0,0,0,0,0,0,0,0,0,0,0,0,0,0,0,0,0,0,0,0,0,0,0,0,0,0,0,0,0,0,0,0,0,2335,2335,2335,2335,2335,2336,2336,0,2348,2348,2348,0,2349,2349,2349,2350,2350,2351,2351,2351,0,0,0,0,0,0,0,0,0,0,0,0,0,0,0,0,0,0,0,0,0,0,0,0,0,0,0,0,0,2335,2335,2335,2335,2335,2335,2335,2335,2335,2335,2368,2368,2380,2380,2380,2378,2378,2369,2369,2369,0,0,0,0,0,0,0,2342,2342,2341,2341,2325,2325,2309,2309,2309,2310,2309,2309,2309,2310,2346,2346,2346,2346,2346,2334,2334,2331,2331,2330,2330,2330,2331,2331,2331,2330,2330,2330,2330,2330,2330,2329,2329,2328,2328,2327,2327,2327,2339,2339,2341,2341,2343,2342,2342,2342,2337,2337,2337,0,2301,2301,2289,2289,2289,2301,2301,2315,2315,2317,2317,2320,2320,2343,2343,2345,2345,0,2344,2344,2343,2343,2342,2342,2342,0,0,0,2340,2340,2315,2315,2330,2330,2338,2338,2347,2347,2347,2347,2348,2348,2348,2348,2348,2348,2348,2347,2347,2346,2346,2346,0,2345,2345,2345,0,2344,2344,2344,2344,2326,2326,2326,2326,2326,2326,2338,2338,2338,2338,2338,2338,0,2338,2338,2324,2324,2324,2324,2324,2325,2325,0,2325,2325,2325,2326,2326,0,0,0,0,0,0,0,2310,2310,2310,2341,2340,2340,2338,2337,2337,2337,0,2336,2336,2324,2324,2324,2324,2324,2325,2325,2325,2325,2330,2330,2331,2331,2331,2331,2331,2331,2331,2319,2319,2319,2320,2320,2330,2330,2330,2330,2330,2329,2329,2329,2324,2324,2320,2320,2320,0,2337,2337,2337,2337,2337,2337,2337,2337,2337,2338,2338,2339,2339,2340,2340,2342,2342,2343,2343,2344,2344,2345,2345,2346,2346,2347,2347,2357,2357,2367,2360,2341,2341,2333,2333,2333,2339,2339,2339,2339,2354,2354,2355,2355,2356,2356,2357,2357,2358,2358,2358,2358,2358,2357,2357,2357,2357,2356,2356,2340,2340,2336,2336,2336,2336,2336,2336,2336,2336,2336,2355,2367,2367,2374,2374,2375,2375,2375,2375,2375,2365,2365,2356,2356,2356,2356,2356,2356,2356,2356,2356,2356,2356,2356,2356,2357,2357,2357,2357,2357,2357,2358,2358,2358,2358,2359,2359,2359,2359,2355,2355,2348,2348,2346,2346,2346,2360,2360,2360,2360,2372,2372,0,2398,2398,2398,0,2414,2414,2414,2421,2421,2433,2433,2451,2451,2451,2451,2451,2451,2451,2451,2451,2451,2451,2451,2451,2452,2452,2452,2452,2452,2452,2453,2453,0,0,0,0,0,0,0,0,0,2430,2430,2414,2414,2414,2414,2414,2414,2414,2422,2422,0,2443,2443,2443,0,0,0,0,2453,2453,2453,0,0,0,0,0,0,0,0,0,0,0,0,0,0,0,0,0,0,0,0,0,0,0,0,0,0,0,0,0,0,0,0,0,0,0,0,0,0,0,0,0,0,0,0,0,0,0,0,0,0,0,0,0,0,0,0,0,0,0,0,0,0,0,0,0,0,0,0,0,0,0,0,0,0,0,0,0,0,0,0,0,0,0,0,0,0,0,0,0,0,0,0,0,0,0,0,0,0,0,0,0,0,0,0,0,0,0,0,0,0,0,0,0,0,0,0,0,0,0,0,0,0,0,0,0,0,0,0,0,0,0,0,0,0,0,0,0,0,0,0,0,0,0,0,0,0,0,0,0,0,0,0,0,0,0,0,0,0,0,0,0,0,0,0,0,0,0,0,0,0,0,0,0,0,0,0,0,0,0,0,0,0,0,0,0,0,0,0,0,0,0,0,0,0,0,0,0,0,0,0,0,0,0,0,0,0,0,0,0,0,0,0,0,0,0,0,0,0,0,0,0,0,0,0,0,0,0,0,0,0,0,0,0,0,2371,2371,2371,0,2331,2330,2330,2330,0,0,0,0,0,2321,2321,2304,2304,2303,2303,2303,0,0,0,0,0,0,0,0,0,0,0,0,0,0,0,0,0,0,0,0,0,0,0,0,0,0,0,0,0,0,0,0,0,0,0,0,0,0,0,0,0,0,0,0,0,0,0,0,0,0,0,0,0,0,0,0,0,0,0,0,0,0,0,0,0,0,0,0,0,0,0,0,0,0,0,0,0,0,0,0,0,0,0,0,0,0,0,0,0,0,0
1812,0,1834,1834,1834,0,1875,1875,1875,1877,1877,1878,1879,1879,1879,1861,1861,1861,0,0,0,0,0,0,0,0,0,0,0,0,0,0,0,0,0,0,0,0,0,0,0,0,0,0,0,0,0,0,0,0,0,0,0,0,0,0,0,0,2086,2086,2061,2061,2061,0,2063,2063,2063,0,0,0,0,0,0,0,0,0,0,0,0,0,0,0,0,0,0,0,0,0,0,0,0,0,0,0,0,0,0,0,0,0,0,0,0,0,0,2335,2335,2335,2335,2335,2336,2336,2347,2347,2348,2348,2348,2348,2349,2349,2350,2350,2350,2350,2351,2352,2352,2353,2353,0,0,0,2352,2352,2352,0,2339,2339,2339,2339,2339,0,2339,2339,2339,0,0,0,0,0,0,0,2335,2335,2335,2335,2335,2335,2335,2335,2335,2335,2335,2335,2368,2368,2379,2379,2380,2378,2378,2369,2369,2369,2369,2369,2369,2369,0,0,0,2342,2342,2341,2341,2325,2325,2309,2309,2309,2310,2309,2309,2309,2310,2346,2346,2346,2346,2346,2333,2333,2331,2331,2330,2330,2330,2331,2331,2331,2330,2330,2330,2330,2330,2330,2329,2329,2328,2328,2327,2327,2327,2327,2327,2339,2339,2340,2340,2341,2342,2337,2337,2337,2342,2301,2301,2289,2289,2289,2301,2301,2315,2315,2317,2317,2320,2320,2337,2337,2345,2345,0,2344,2344,2343,2343,2342,2342,2342,2342,2342,0,2340,2340,2315,2315,2330,2330,2338,2338,2346,2346,2347,2347,2347,2347,2347,2347,2347,2347,2347,2346,2346,2346,2346,2345,2345,2345,2345,2344,2344,2343,2343,2329,2329,2326,2326,2326,2326,2326,2326,2338,2338,2338,2338,2338,2338,2338,2323,2323,2323,2323,2323,2324,2324,2324,2324,2325,2325,2325,2325,2325,2312,2312,2311,2311,2311,0,0,0,2310,2310,2310,2341,2340,2340,2338,2337,2337,2337,2353,2336,2336,2324,2324,2324,2324,2324,2325,2325,2325,2325,2330,2330,2331,2331,2331,2331,2331,2331,2331,2319,2319,2319,2320,2320,2330,2330,2330,2330,2330,2329,2329,2329,2324,2324,2320,2320,2320,2337,2337,2337,2337,2337,2337,2337,2337,2337,2337,2337,2337,2337,2337,2339,2339,2342,2342,2343,2343,2344,2344,2344,2344,2345,2345,2347,2347,2357,2357,2366,2360,2341,2341,2333,2333,2333,2339,2339,2339,2339,2354,2354,2355,2355,2355,2355,2357,2357,2358,2358,2358,2358,2358,2357,2357,2357,2357,2355,2355,2340,2340,2336,2336,2336,2336,2336,2336,2336,2336,2336,2350,2366,2366,2374,2374,2375,2375,2375,2375,2375,2365,2365,2356,2356,2356,2356,2356,2356,2356,2356,2356,2356,2356,2356,2356,2356,2356,2357,2357,2357,2357,2358,2358,2358,2358,2359,2359,2358,2358,2352,2352,2347,2347,2344,2344,2344,2344,2344,2360,2360,2360,2360,2372,2372,2383,2383,2400,2400,2400,2400,2414,2414,2421,2421,2422,2422,2434,2434,2450,2450,2450,2450,2451,2451,2451,2451,2451,2452,2452,2452,2452,2452,2452,2453,2453,2464,2464,0,0,0,2463,2463,2438,2438,2430,2430,2414,2414,2414,2414,2414,2414,2414,2422,2422,2424,2424,2443,2442,2442,2442,2442,2442,2452,2452,2453,0,2455,2455,2455,0,0,0,0,0,0,0,0,0,0,0,0,0,0,0,0,0,0,0,0,0,0,0,0,0,0,0,0,0,0,0,0,0,0,0,0,0,0,0,0,0,0,0,0,0,0,0,0,0,0,0,0,0,0,0,0,0,0,0,0,0,0,0,0,0,0,0,0,0,0,0,0,0,0,0,0,0,0,0,0,0,0,0,0,0,0,0,0,0,0,0,0,0,0,0,0,0,0,0,0,0,0,0,0,0,0,0,0,0,0,0,0,0,0,0,0,0,0,0,0,0,0,0,0,0,0,0,0,0,0,0,0,0,0,0,0,0,0,0,0,0,0,0,0,0,0,0,0,0,0,0,0,0,0,0,0,0,0,0,0,0,0,0,0,0,0,0,0,0,0,0,0,0,0,0,0,0,0,0,0,0,0,0,0,0,0,0,0,0,0,0,0,0,0,0,0,0,0,0,0,0,0,0,0,0,0,0,0,0,0,0,0,0,0,0,0,0,0,0,0,0,0,0,0,0,0,0,0,0,0,0,0,0,0,2331,2331,0,0,0,0,0,0,0,0,0,2320,2320,2303,2303,2303,0,0,0,0,0,0,0,0,0,0,0,0,0,0,0,0,0,0,0,0,0,0,0,0,0,0,0,0,0,0,0,0,0,0,0,0,2103,2103,2103,0,2103,2103,2103,0,2008,2008,1991,1991,1991,0,0,0,0,0,0,0,0,0,0,0,0,0,0,0,0,0,0,0,0,0,0,0,0,0,0,0,0,0,0,0,0,0,0,0,0,0,0,0,0,0,0
1812,1834,1834,1834,1834,0,1875,1875,1875,1877,1877,1877,1879,1879,1879,1861,1861,1861,0,0,0,0,0,0,0,0,0,0,0,0,0,0,0,0,0,0,0,0,0,0,0,0,0,0,0,0,0,0,0,0,0,0,0,0,0,0,0,0,2086,2086,2086,0,0,0,0,0,0,0,0,0,0,0,0,0,0,0,0,0,0,0,0,0,0,0,0,0,0,0,0,0,0,0,0,0,0,0,0,0,0,0,0,0,0,0,0,0,0,2336,2336,2336,2336,2336,2347,2347,0,2348,2348,2348,2349,2349,2350,2350,2350,2350,2351,2352,2352,2353,2353,0,0,0,2352,2352,2352,0,2339,2339,2339,2339,2339,0,2339,2339,2339,0,0,0,0,0,0,0,2335,2335,2335,0,0,0,2335,2335,2335,2335,2368,2368,2380,2379,2379,2379,2394,2380,2380,2380,0,2369,2369,2369,2369,2369,0,0,0,0,0,0,0,0,0,2310,2310,2310,2310,2310,2310,2310,2311,2346,2346,0,0,0,2333,2333,2333,2333,2332,2332,2332,2332,2331,2331,2331,2331,2331,2331,2330,2330,2329,2329,2328,2328,2327,2327,2327,2327,2327,2339,2339,2340,2340,2341,2342,2342,2342,2342,2342,2342,0,0,0,2301,2301,2301,2317,2317,2317,2317,0,2337,2337,2337,0,0,0,2344,2344,2344,2344,2343,2343,2342,2342,2342,0,2340,2340,2340,2341,2341,2341,2346,2346,2346,2346,2347,2347,2347,2347,2347,2347,2347,2347,2347,2346,2346,2346,2346,2345,2345,2345,2345,2344,2344,2343,2343,2329,2329,2326,2326,2326,2326,2326,2326,2338,2338,2338,2338,2338,2338,2338,2323,2323,2323,2323,2323,2324,2324,2324,2324,2325,2325,2325,2325,2325,2312,2312,2311,2311,2311,0,0,0,2341,2341,2341,2359,2359,2359,2358,2358,2358,2353,2353,2336,2336,2335,2335,2325,2325,2325,2325,2325,2330,2330,2331,2331,2331,2331,2331,2331,2331,2331,2331,2331,2331,2331,2331,2331,2331,2330,2330,2330,2330,2330,2330,2329,2329,2329,2328,2328,2328,2337,2337,2337,2337,2337,2337,2337,2337,2337,2337,2337,2337,2337,2337,2339,2339,2342,2342,2343,2343,2344,2344,2344,2344,2345,2345,2348,2348,2366,2366,2366,2366,2341,2341,2340,2340,2340,2340,2340,2340,2340,2354,2354,2355,2355,2355,2355,2357,2357,2358,2358,2359,2359,2359,2358,2358,2357,2357,2355,2355,2340,2340,2336,2336,2336,2336,2336,2336,2336,2336,2350,2350,2366,2366,2376,2376,2376,2376,2376,2376,2376,2376,2376,2357,2357,2357,2357,2356,2356,2356,2356,2356,2356,2356,2356,2356,2356,2356,2357,2357,2358,2358,2358,2358,2359,2359,2359,2359,2358,2358,2352,2352,2347,2347,2344,2344,2344,2344,2344,2360,2360,2360,2360,2372,2372,2383,2383,2400,2400,2400,2400,2414,2414,2421,2421,2422,2422,2434,2434,2450,2450,2450,2450,2451,2451,2451,2451,2451,2452,2452,2462,2462,2463,2463,0,2464,2464,2464,0,0,0,2463,2463,2438,2438,2431,2431,2414,2414,2414,2414,2414,2414,2414,2422,2422,2424,2424,0,2442,2442,2442,2442,2442,2452,2452,0,0,2455,2455,2455,0,0,0,0,0,0,0,0,0,0,0,0,0,0,0,0,0,0,0,0,0,0,0,0,0,0,0,0,0,0,0,0,0,0,0,0,0,0,0,0,0,0,0,0,0,0,0,0,0,0,0,0,0,0,0,0,0,0,0,0,0,0,0,0,0,0,0,0,0,0,0,0,0,0,0,0,0,0,0,0,0,0,0,0,0,0,0,0,0,0,0,0,0,0,0,0,0,0,0,0,0,0,0,0,0,0,0,0,0,0,0,0,0,0,0,0,0,0,0,0,0,0,0,0,0,0,0,0,0,0,0,0,0,0,0,0,0,0,0,0,0,0,0,0,0,0,0,0,0,0,0,0,0,0,0,0,0,0,0,0,0,0,0,0,0,0,0,0,0,0,0,0,0,0,0,0,0,0,0,0,0,0,0,0,0,0,0,0,0,0,0,0,0,0,0,0,0,0,0,0,0,0,0,0,0,0,0,0,0,0,0,0,0,0,0,0,0,0,0,0,0,0,0,0,0,0,0,0,0,0,0,0,0,0,2331,2331,0,0,0,0,0,0,0,0,0,2320,2320,2303,2303,2303,2305,2305,0,0,0,0,0,0,0,0,0,0,0,0,0,0,0,0,0,0,0,0,0,0,0,0,0,0,0,0,0,0,0,0,0,0,2103,2103,2103,0,2103,2103,2103,0,2008,2008,1991,1991,1991,0,0,0,0,0,0,0,0,0,0,0,0,0,0,0,0,0,0,0,0,0,0,0,0,0,0,0,0,0,0,0,0,0,0,0,0,0,0,0,0,0,0
1814,1834,1834,0,0,0,1876,1876,1876,1877,1877,1877,0,0,0,1878,1878,1878,0,0,0,0,0,0,0,0,0,0,0,0,0,0,0,0,0,0,0,0,0,0,0,0,0,0,0,0,0,0,0,0,0,0,0,0,0,0,0,0,2086,2086,2086,0,2087,2087,2087,0,0,0,0,0,0,0,0,0,0,0,0,0,0,0,0,0,0,0,0,0,0,0,0,0,0,0,0,0,0,0,0,0,0,0,0,0,0,0,0,0,0,2336,2336,2336,2336,2336,2347,2347,2348,2348,2348,2348,2349,2349,2349,2349,2350,2350,2351,2352,2352,2353,2353,0,0,0,2352,2352,2339,2339,2339,2339,2339,2339,2338,2338,2338,2338,2338,2338,2338,0,0,0,0,0,2335,2335,2311,2311,2311,2313,2313,2313,2335,2335,2368,2368,2379,2379,2379,2379,2394,2380,2380,2379,2379,2369,2369,2369,2369,2369,0,0,0,0,0,0,0,0,0,2310,2310,2310,2310,2310,2310,2310,2311,2330,2330,2347,2347,2347,2333,2333,2333,2333,2332,2332,2332,2332,2331,2331,2331,2331,2331,2331,2330,2330,2329,2329,2328,2328,2327,2327,2327,2327,2327,2338,2338,2339,2339,2340,2341,2341,2342,2342,2342,2342,2342,2338,2338,2301,2301,2301,2317,2317,2317,2317,0,2334,2334,2334,2345,2345,0,2344,2344,2344,2344,2343,2343,2342,2342,2341,2341,2340,2340,2340,2341,2341,2341,2346,2346,2346,2346,2346,2346,2346,2346,2346,2346,2346,2346,2346,2346,2346,2346,2346,2345,2345,2344,2344,2340,2340,2335,2335,2326,2326,2326,2326,2326,2326,2326,2326,2338,2338,2338,2338,2338,2338,2338,2323,2323,2323,2323,2323,2323,2323,2324,2324,2324,2324,2324,2324,2324,2312,2312,2311,2311,2311,2313,2313,2353,2341,2341,2341,2359,2359,2359,2358,2358,2358,2353,2353,2336,2336,2335,2335,2325,2325,2325,2325,2325,2330,2330,2331,2331,2331,2331,2331,2331,2331,2331,2331,2331,2331,2331,2331,2331,2331,2330,2330,2330,2330,2330,2330,2329,2329,2329,2328,2328,2328,2337,2337,2337,2337,2337,2337,2337,2337,2337,2337,2337,2336,2336,2336,2336,2336,2336,2336,2337,2337,2342,2342,2343,2343,2343,2343,2348,2348,2366,2366,2366,2366,2341,2341,2340,2340,2340,2340,2340,2340,2340,2354,2354,2354,2354,2354,2354,2356,2356,2358,2358,2359,2359,2359,2358,2358,2357,2357,2355,2355,2340,2340,2336,2336,2336,2336,2336,2336,2336,2336,2349,2349,2366,2366,2376,2376,2376,2376,2376,2376,2376,2376,2376,2357,2357,2357,2357,2356,2356,2356,2356,2356,2356,2356,2356,2356,2356,2356,2357,2357,2358,2358,2358,2358,2359,2359,2359,2359,2358,2358,2351,2351,2344,2344,2344,2344,2344,2344,2343,2343,2343,2360,2360,2372,2372,2383,2383,2383,2383,2400,2400,2401,2401,2414,2414,2417,2417,2421,2421,2422,2422,2435,2435,2451,2451,2451,2451,2451,2452,2452,2462,2462,2463,2463,0,2464,2464,2464,0,0,0,2462,2462,2438,2438,2431,2431,2413,2413,2413,2413,2413,2413,2413,2422,2422,2423,2423,2424,2424,2424,2424,2424,2424,2441,2441,2441,2441,2440,2440,2440,2440,2440,0,0,0,0,0,0,0,0,0,0,0,0,0,0,0,0,0,0,0,0,0,0,0,0,0,0,0,0,0,0,0,0,0,0,0,0,0,0,0,0,0,0,0,0,0,0,0,0,0,0,0,0,0,0,0,0,0,0,0,0,0,0,0,0,0,0,0,0,0,0,0,0,0,0,0,0,0,0,0,0,0,0,0,0,0,0,0,0,0,0,0,0,0,0,0,0,0,0,0,0,0,0,0,0,0,0,0,0,0,0,0,0,0,0,0,0,0,0,0,0,0,0,0,0,0,0,0,0,0,0,0,0,0,0,0,0,0,0,0,0,0,0,0,0,0,0,0,0,0,0,0,0,0,0,0,0,0,0,0,0,0,0,0,0,0,0,0,0,0,0,0,0,0,0,0,0,0,0,0,0,0,0,0,0,0,0,0,0,0,0,0,0,0,0,0,0,0,0,0,0,0,0,0,0,0,0,0,0,0,0,0,0,0,0,0,0,0,0,0,0,0,0,0,0,0,0,0,0,0,0,0,0,0,0,0,0,0,0,0,0,0,0,0,0,0,2319,2319,2305,2305,2305,0,0,0,0,0,0,0,0,0,0,0,0,0,0,0,0,0,0,0,0,0,0,0,0,0,0,0,0,0,0,0,0,0,0,2103,2103,2103,0,2103,2103,2103,0,2008,2008,1991,1991,1991,1991,1991,0,0,0,0,0,0,0,0,0,0,0,0,0,0,0,0,0,0,0,0,0,0,0,0,0,0,0,0,0,0,0,0,0,0,0,0,0,0,0,0
1814,1834,1834,0,0,0,1876,1876,1876,1877,1877,1877,0,0,0,1878,1878,1878,0,0,0,0,0,0,0,0,0,0,0,0,0,0,0,0,0,0,0,0,0,0,0,0,0,0,0,0,0,0,0,0,0,0,0,0,0,0,0,0,0,0,0,0,2087,2087,2087,0,0,0,0,0,0,0,0,0,0,0,0,0,0,0,0,0,0,0,0,0,0,0,0,0,0,0,0,0,0,0,0,0,0,0,0,0,0,0,0,0,0,0,0,0,0,2347,2347,2347,2348,2348,2348,2348,2349,2349,2349,2349,2350,2350,2351,0,0,0,0,0,0,0,0,0,2339,2339,2339,2339,2339,0,2338,2338,2338,2338,2338,2338,2338,0,0,0,0,0,0,0,2311,2311,2311,2313,2313,2313,2353,2353,2368,2368,2379,2379,2394,2394,0,2394,2394,2379,2379,2379,0,0,0,0,0,0,0,0,0,0,0,0,0,0,0,2311,2311,2311,2311,2311,2311,2330,2330,2347,2347,2347,2333,2333,2333,2333,2333,0,2332,2332,2332,2332,2332,2332,2331,2331,2330,2330,2329,2329,2328,2328,2327,2327,2327,2327,2327,2338,2338,2339,2339,2340,2341,2341,2342,2342,2342,2342,2342,2338,2338,2316,2316,2316,2317,2317,2319,2319,0,2334,2334,2334,2345,2345,0,0,0,0,0,2344,2344,2344,0,2341,2341,2341,2341,2341,2341,2344,2344,2346,2346,2346,2346,2346,2346,2346,2346,2346,2346,2346,2346,2346,2346,2346,2346,2346,2345,2345,2344,2344,2340,2340,2335,2335,2326,2326,2326,2326,2326,2326,2326,2326,2338,2338,2338,2338,2338,2338,2338,2323,2323,2323,0,2323,2323,2323,2324,2324,2324,2324,2324,2324,2324,2313,2313,2313,2313,2313,2313,2313,2353,2353,2360,2360,0,2359,2359,2358,2358,2358,2357,2357,2356,2356,2336,2336,2333,2333,2331,2331,2331,2331,2331,2331,2331,2331,2331,2331,2331,2332,2332,2332,2332,2332,2332,2332,2331,2331,2331,2331,2330,2330,2330,2330,2329,2329,2329,2329,2347,2347,2365,2365,2365,2338,2338,2337,2337,2337,2337,2337,2337,2336,2336,2336,2336,2336,2336,2336,2337,2337,2342,2342,2343,2343,2343,2343,2353,2353,2366,2366,2366,2366,2341,2341,2340,2340,2340,2340,2340,2340,2340,2354,2354,2354,2354,2354,2354,2356,2356,2358,2358,2359,2359,2360,2360,2360,2357,2357,2355,2355,2353,2353,2337,2337,2336,2336,2336,2336,2336,2337,2349,2349,2366,2366,2377,2377,2377,2377,2377,2377,2378,2378,2378,2376,2376,2357,2357,2357,2357,2356,2356,2356,2356,2356,2356,2356,2356,2356,2357,2357,2358,2358,2359,2359,2360,2360,2360,2360,2360,2361,2351,2351,2344,2344,2344,2344,2344,2344,2343,2343,2343,2360,2360,2372,2372,2383,2383,2383,2383,2400,2400,2401,2401,2414,2414,2417,2417,2421,2421,2422,2422,2435,2435,2451,2451,2451,2451,2451,2452,2452,2462,2462,2463,2463,0,0,0,0,0,0,0,2462,2462,2439,2439,2431,2431,2413,2413,2413,2413,2413,2413,2413,2422,2422,2423,2423,2424,2424,2424,2424,2424,2424,2441,2441,2441,2441,2440,2440,2440,2440,2440,0,0,0,0,0,0,0,0,0,0,0,0,0,0,0,0,0,0,0,0,0,0,0,0,0,0,0,0,0,0,0,0,0,0,0,0,0,0,0,0,0,0,0,0,0,0,0,0,0,0,0,0,0,0,0,0,0,0,0,0,0,0,0,0,0,0,0,0,0,0,0,0,0,0,0,0,0,0,0,0,0,0,0,0,0,0,0,0,0,0,0,0,0,0,0,0,0,0,0,0,0,0,0,0,0,0,0,0,0,0,0,0,0,0,0,0,0,0,0,0,0,0,0,0,0,0,0,0,0,0,0,0,0,0,0,0,0,0,0,0,0,0,0,0,0,0,0,0,0,0,0,0,0,0,0,0,0,0,0,0,0,0,0,0,0,0,0,0,0,0,0,0,0,0,0,0,0,0,0,0,0,0,0,0,0,0,0,0,0,0,0,0,0,0,0,0,0,0,0,0,0,0,0,0,0,0,0,0,0,0,0,0,0,0,0,0,0,0,0,0,0,0,0,0,0,0,0,0,0,0,0,0,0,0,0,0,0,0,0,0,0,0,0,0,0,2319,2319,2305,2305,2305,2310,2307,2307,2307,0,0,0,0,0,0,0,0,0,0,0,0,0,0,0,0,0,0,0,0,0,0,0,0,0,0,0,0,0,0,0,0,0,0,0,0,0,0,2009,2009,2004,2004,1991,1991,1991,0,0,0,0,0,0,0,0,0,0,0,0,0,0,0,0,0,0,0,0,0,0,0,0,0,0,0,0,0,0,0,0,0,0,0,0,0,0,0,0
0,0,0,0,0,0,0,0,0,0,0,0,0,0,0,0,0,0,0,0,0,0,0,0,0,0,0,0,0,0,0,0,0,0,0,0,0,0,0,0,0,0,0,0,0,0,0,0,0,0,0,0,0,0,0,0,0,0,2086,2086,2086,0,2087,2087,2087,0,0,0,0,0,0,0,0,0,0,0,0,0,0,0,0,0,0,0,0,0,0,0,0,0,0,0,0,0,0,0,0,0,0,0,0,0,0,0,0,0,0,2347,2347,2347,2347,2347,2347,2347,2347,2347,2348,2348,2348,2348,2349,2349,2350,2350,2351,2352,2352,0,0,0,0,0,0,0,2339,2339,2338,2338,2338,2338,2338,2338,2337,2337,2337,2338,2338,0,0,0,0,0,2300,2300,2300,2311,2300,2300,2312,2312,2353,2353,2353,2353,2379,2379,2379,2379,2394,2394,2394,2379,2379,2379,0,0,0,0,0,0,0,0,0,0,0,0,0,0,0,2311,2311,2311,2311,2311,2311,2328,2328,2331,2331,2347,2333,2333,2333,2333,2333,2333,2332,2332,2332,2332,2332,2332,2331,2331,2330,2330,2329,2329,2328,2328,2327,2327,2327,2327,2327,2337,2337,2338,2338,2339,2340,2340,2342,2342,2342,2342,2342,2338,2338,2316,2316,2316,2317,2317,2319,2319,2333,2333,2333,2333,2345,2345,0,0,0,0,0,2344,2344,2343,2343,2341,2341,2341,2341,2341,2341,2344,2344,2346,2346,2346,2346,2346,2346,2346,2346,2346,2346,2346,2346,2346,2346,2346,2346,2346,2345,2345,2337,2337,2336,2336,2324,2324,2324,2325,2325,2325,2325,2326,2326,2326,2338,2338,2338,2338,2338,2338,2338,2322,2322,2321,2321,2321,2322,2322,2323,2323,2323,2323,2323,2322,2322,2313,2313,2313,2313,2313,2313,2313,2353,2353,2360,2360,2373,2359,2359,2358,2358,2358,2357,2357,2356,2356,2336,2336,2333,2333,2331,2331,2331,2331,2331,2331,2331,2331,2331,2331,2331,2332,2332,2332,2332,2332,2332,2332,2331,2331,2331,2331,2330,2330,2330,2330,2329,2329,2329,2329,2347,2347,2365,2365,2365,2338,2338,2337,2337,2337,2337,2336,2336,2336,2336,2335,2335,2335,2335,2335,2335,2335,2337,2337,2341,2341,2342,2342,2353,2353,2366,2366,2366,2366,2340,2340,2340,2340,2340,2340,2340,2340,2340,2353,2353,2354,2354,2354,2354,2355,2355,2357,2357,2359,2359,2360,2360,2360,2357,2357,2355,2355,2353,2353,2337,2337,2336,2336,2336,2336,2336,2337,2349,2349,2365,2365,2377,2377,2377,2377,2377,2377,2378,2378,2378,2376,2376,2357,2357,2357,2357,2356,2356,2356,2356,2355,2355,2355,2355,2355,2356,2356,2358,2358,2359,2359,2360,2360,2360,2360,2360,2361,2351,2351,2344,2344,2343,2343,2343,2343,2343,2343,2343,2360,2360,2372,2372,2382,2382,2383,2383,2400,2400,2400,2400,2400,2400,2400,2394,2394,2393,2393,2393,2394,2394,2405,2405,2423,2423,2435,2452,2452,2453,2453,2462,2462,0,0,0,0,0,0,0,2462,2462,2439,2439,2430,2430,2411,2411,2405,2405,2405,2407,2407,2411,2411,2423,2423,2423,2423,2424,2424,2424,2424,2424,2424,2424,2441,2408,2408,2408,2440,2440,0,0,0,0,0,0,0,0,0,0,0,0,0,0,0,0,0,0,0,0,0,0,0,0,0,0,0,0,0,0,0,0,0,0,0,0,0,0,0,0,0,0,0,0,0,0,0,0,0,0,0,0,0,0,0,0,0,0,0,0,0,0,0,0,2433,2433,2433,2433,2433,2433,2433,0,0,0,0,0,0,0,0,0,0,0,0,0,0,0,0,0,0,0,0,0,0,0,0,0,0,0,0,0,0,0,0,0,0,0,0,0,0,0,0,0,0,0,0,0,0,0,0,0,0,0,0,0,0,0,0,0,0,0,0,0,0,0,0,0,0,0,0,0,0,0,0,0,0,0,0,0,0,0,0,0,0,0,0,2478,2478,2478,0,0,0,0,0,0,0,0,0,0,0,0,0,0,0,0,0,0,0,0,0,0,0,0,0,0,0,0,0,0,0,0,0,0,0,0,0,0,0,0,0,0,0,0,0,0,0,0,0,0,0,0,0,0,0,0,0,0,0,0,0,0,0,0,0,0,0,0,0,0,0,0,0,0,0,0,0,0,0,0,0,0,0,0,0,0,0,0,0,2319,2319,2310,2310,2307,2307,2307,0,0,0,0,0,0,0,0,0,0,0,0,0,0,0,0,0,0,0,0,0,0,0,0,0,0,0,0,0,0,0,0,0,0,2103,2103,2103,0,2009,2009,2004,2004,1991,1991,1991,0,0,0,0,0,0,0,0,0,0,0,0,0,0,0,0,0,0,0,0,0,0,0,0,0,0,0,0,0,0,0,0,0,0,0,0,0,0,0,0
1875,1875,1875,0,1876,1876,1876,1876,1876,0,0,0,0,0,0,0,0,0,0,0,0,0,0,0,0,0,0,0,0,0,0,0,0,0,0,0,0,0,0,0,0,0,0,0,0,0,0,0,0,0,0,0,0,0,0,0,0,0,2086,2086,2086,0,0,0,0,0,0,0,0,0,0,0,0,0,0,0,0,0,0,0,0,0,0,0,0,0,0,0,0,0,0,0,0,0,0,0,0,0,0,0,0,0,0,0,0,0,0,2347,2347,2347,2347,2347,2347,2347,2347,2347,2348,2348,2348,2348,0,0,0,0,2352,2352,2352,0,0,0,0,0,0,0,2339,2339,2338,2338,2338,2338,2338,0,2337,2337,2337,0,0,0,0,0,0,0,2300,2300,2300,0,2300,2300,2312,2312,0,2353,2353,2353,2379,2379,2379,2379,2394,2394,0,2379,2379,2379,0,0,0,0,0,0,0,0,0,0,0,0,0,0,0,0,0,0,0,0,2328,2328,2328,2331,2331,0,0,0,2333,2333,2333,2333,2333,2333,2333,2333,2332,2332,2332,2332,2331,2331,2329,2329,2328,2328,2327,2327,2327,2327,2327,2337,2337,2338,2338,2339,2340,2340,2342,2342,2342,2342,2342,2341,2341,2335,2335,2335,0,0,0,2333,2333,2333,2333,2333,2345,2345,0,0,0,0,0,0,0,2343,2343,2341,2341,2341,2341,2343,2343,2347,2346,2346,2346,2346,2346,2346,2346,2346,2346,2346,2346,2346,2346,2346,2346,2346,2346,2346,2345,2345,2337,2337,2336,2336,2324,2324,2324,2325,2325,2325,2325,2326,2326,2327,2338,2338,0,0,0,0,0,2322,2322,2321,2321,2321,2322,2322,2323,2323,2323,2323,2323,2322,2322,2315,2315,2315,2315,2314,2314,2314,2356,2356,2373,2373,2373,2373,2373,2358,2358,2358,2357,2357,2356,2356,2354,2354,2335,2335,2333,2333,2332,2332,2332,2332,2332,2332,2332,2332,2332,2332,2332,2332,2332,2332,2332,2333,2333,2333,2332,2332,2332,2334,2334,2339,2339,2339,2345,2345,2375,2375,2385,2385,2385,2365,2365,2338,2338,2337,2337,2336,2336,2336,2336,2335,2335,2335,2335,2335,2335,2335,2337,2337,2341,2341,2342,2342,2353,2353,2366,2366,2366,2366,2340,2340,2340,2340,2340,2340,2340,2340,2340,2353,2353,2354,2354,2354,2354,2355,2355,2357,2357,2360,2360,2361,2361,2361,2361,2361,2355,2355,2353,2353,2352,2352,2337,2337,2337,2337,2337,2347,2350,2350,2365,2365,2377,2377,2378,2378,2378,2378,2378,2378,2379,2379,2379,2375,2375,2357,2357,2356,2356,2356,2356,2355,2355,2355,2355,2355,2356,2356,2358,2358,2359,2359,2360,2360,2360,2360,2360,2361,2357,2357,2344,2344,2343,2343,2343,2343,2343,2343,2343,2360,2360,2372,2372,2382,2382,2383,2383,2400,2400,2400,2400,2400,2400,2400,2394,2394,2393,2393,2393,2394,2394,2405,2405,2423,2423,2435,2452,2452,2453,2453,2462,2462,0,0,0,0,0,0,0,0,0,2439,2439,2430,2430,2411,2411,2405,2405,2405,2407,2407,2411,2411,2423,2423,2423,2423,2424,2424,2424,2424,2424,2424,2424,0,2408,2408,2408,0,0,0,0,0,0,0,0,0,0,0,0,0,0,0,0,0,0,0,0,0,0,0,0,0,0,0,0,0,0,0,0,0,0,0,0,0,0,0,0,0,0,0,0,0,0,0,0,0,0,0,0,0,0,0,0,0,0,0,0,0,0,0,0,0,0,2433,2433,2433,2433,2433,2433,2433,0,0,0,0,0,0,0,0,0,0,0,0,0,0,0,0,0,0,0,0,0,0,0,0,0,0,0,0,0,0,0,0,0,0,0,0,0,0,0,0,0,0,0,0,0,0,0,0,0,0,0,0,0,0,0,0,0,0,0,0,0,0,0,0,0,0,0,0,0,0,0,0,0,0,0,0,0,0,0,0,0,0,0,0,2478,2478,2478,0,0,0,0,0,0,0,0,0,0,0,0,0,0,0,0,0,0,0,0,0,0,0,0,0,0,0,0,0,0,0,0,0,0,0,0,0,0,0,0,0,0,2417,2417,2417,0,0,0,0,0,0,0,0,0,0,0,0,0,0,0,0,0,0,0,0,0,0,0,0,0,0,0,0,0,0,0,0,0,0,0,0,0,0,0,0,2351,2351,2351,0,2319,2319,2310,2310,2307,2307,2307,0,0,0,0,0,0,0,0,0,0,0,0,0,0,0,0,0,0,0,0,0,0,0,0,0,0,0,0,0,0,0,0,0,0,2103,2103,2103,0,2013,2013,2005,2005,2005,0,0,0,0,0,0,0,0,0,0,0,0,0,0,0,0,0,0,0,0,0,0,0,0,0,0,0,0,0,0,0,0,0,0,0,0,0,0,0,0,0,0
1875,1875,1875,0,1876,1876,1876,1876,1876,0,0,0,0,0,0,0,0,0,0,0,0,0,0,0,0,0,0,0,0,0,0,0,0,0,0,0,0,0,0,0,0,0,0,0,0,0,0,0,0,0,0,0,0,0,0,0,0,0,2086,2086,2086,0,0,0,0,0,0,0,0,0,0,0,0,0,0,0,0,0,0,0,0,0,0,0,0,0,0,0,0,0,0,0,0,0,0,0,0,0,0,0,0,0,0,0,0,2347,2347,2347,2347,2347,2347,2347,2347,2347,2347,2337,2337,2337,2348,2348,0,0,0,0,2352,2352,2352,0,0,0,0,0,0,0,2339,2339,2338,2338,2338,2338,2337,2337,2337,2337,2337,0,0,0,0,0,0,0,2300,2300,2300,2300,2300,2300,2301,2301,2312,2312,2353,2353,2353,2353,2353,2353,2394,2394,0,2379,2379,2379,0,0,0,0,0,0,0,0,0,0,0,0,0,0,0,0,0,0,0,0,2324,2324,2324,2329,2329,0,2332,2332,2332,2333,2333,2333,2333,2333,2333,2333,2332,2332,2332,2332,2331,2331,2329,2329,2328,2328,2327,2327,2327,2327,2327,2337,2337,2337,2338,2338,2339,2339,2342,2342,2342,2342,2342,2341,2341,2335,2335,2334,2334,2333,2333,2333,2333,2332,2332,2332,2345,2345,0,0,0,0,0,0,0,2343,2343,2341,2341,2341,2341,2343,2343,2347,2346,2346,2346,2346,2345,2345,2345,2345,2345,2345,2345,2345,2345,2346,2346,2346,2346,2346,2345,2345,2336,2336,2323,2323,2323,2323,2323,2325,2325,2325,2325,2326,2326,2327,2338,2338,0,0,0,0,0,2322,2322,2313,2313,2313,2322,2322,2322,2322,2322,2322,2322,2321,2321,2315,2315,2315,2315,2314,2314,2314,2356,2356,2359,2359,2373,2359,2359,2358,2358,2358,2357,2357,2355,2355,2354,2354,2335,2335,2333,2333,2332,2332,2332,2332,2332,2332,2332,2332,2332,2332,2332,2332,2332,2332,2332,2333,2333,2333,2332,2332,2332,2334,2334,2339,2339,2339,2345,2345,2375,2375,2385,2385,2385,2365,2365,2338,2338,2337,2337,2336,2336,2335,2335,2335,2335,2335,2335,2335,2335,2335,2335,2335,2339,2339,2341,2341,2353,2353,2353,2353,2366,2353,2340,2340,2340,2340,2340,2340,2340,2340,2340,2353,2353,2354,2354,2354,2354,2355,2355,2357,2357,2360,2360,2361,2361,2361,2361,2361,2355,2355,2353,2353,2352,2352,2337,2337,2337,2337,2337,2347,2350,2350,2365,2365,2366,2366,2378,2378,2378,2378,2378,2378,2379,2379,2379,2375,2375,2357,2357,2356,2356,2354,2354,2353,2353,2340,2340,2338,2338,2338,2339,2339,2359,2359,2360,2360,2360,2360,2360,2360,2357,2357,2344,2344,2343,2343,2343,2343,2343,2343,2343,2360,2360,2372,2372,2381,2381,2382,2382,2383,2383,2400,2400,2400,2390,2390,2385,2385,2379,2379,2379,2393,2393,2397,2397,2405,2405,2404,2404,2404,2404,2401,2401,2400,2400,2400,0,2441,2441,2441,0,0,0,2430,2430,2430,2430,2402,2402,2397,2397,2397,2397,2397,2403,2403,2408,2406,2406,2405,2405,2405,2405,2405,2405,2405,2406,2407,2393,2393,2393,2394,2394,0,2395,2395,2395,0,0,0,0,0,0,0,0,0,0,0,0,0,0,0,0,0,0,0,0,0,0,0,0,0,0,0,0,0,0,0,0,0,0,0,0,0,0,0,0,0,0,0,0,0,0,0,0,0,0,0,0,0,0,0,0,0,0,2432,2432,2432,2433,2433,2433,2433,2433,2433,0,0,0,0,0,0,0,0,0,0,0,0,0,0,0,0,0,0,0,0,0,0,0,0,0,0,0,0,0,0,0,0,0,0,0,0,0,0,0,0,0,0,0,0,0,0,0,0,0,0,0,0,0,0,0,0,0,0,0,0,0,0,0,0,0,0,0,0,0,0,0,0,0,0,0,0,0,0,0,0,0,0,0,0,2461,2461,2455,2455,2455,0,2491,2491,2491,0,0,0,0,0,0,0,0,0,0,0,0,0,0,0,0,0,0,0,0,0,0,0,0,0,0,0,0,0,0,0,0,0,0,2420,2420,2417,2417,2408,2408,2408,2408,2408,0,0,0,0,0,0,0,0,0,0,0,0,0,0,0,0,0,0,0,0,0,0,0,0,0,0,0,0,0,0,0,0,0,0,0,0,2351,2351,2351,0,2319,2319,2319,2319,2319,2319,2319,0,0,0,0,0,0,0,0,0,0,0,0,0,0,0,0,0,0,0,0,0,0,0,0,0,0,0,0,0,0,0,0,0,0,2103,2103,2103,0,2013,2013,2005,2005,2005,0,0,0,0,0,0,0,0,0,0,0,0,0,0,0,0,0,0,0,0,0,0,0,0,0,0,0,0,0,0,0,0,0,0,0,0,0,0,0,0,0,0
1873,1873,1873,0,1876,1876,1876,1876,1876,0,0,0,0,0,0,0,0,0,0,0,0,0,0,0,0,0,0,0,0,0,0,0,0,0,0,0,0,0,0,0,0,0,0,0,0,0,0,0,0,0,0,0,0,0,0,0,0,0,2087,2087,2087,0,0,0,0,0,0,0,0,0,0,0,0,0,0,0,0,0,0,0,0,0,0,0,0,0,0,0,0,0,0,0,0,0,0,0,0,0,0,0,0,0,0,0,0,2347,2347,2347,2347,2347,2347,2347,2347,2347,2347,2337,2337,2337,0,0,0,0,0,0,0,0,0,0,0,0,0,0,0,0,0,0,2338,2338,2338,2338,2337,2337,2337,0,0,0,0,0,0,0,0,0,2300,2300,2300,2300,2300,2300,2301,2301,2312,2312,0,2353,2353,2353,2353,2353,0,0,0,0,0,0,0,0,0,0,0,0,0,0,0,0,0,0,0,0,0,0,0,0,0,0,2324,2324,2324,2329,2329,0,2332,2332,2332,0,0,0,2341,2341,2340,2340,2333,2333,2333,2333,2333,2333,2332,2332,2329,2329,2328,2328,2328,2337,2337,2337,2337,2337,2338,2338,2339,2339,2342,2342,2342,2342,2342,2342,2342,2335,2335,2334,2334,2333,2333,2333,2333,2332,2332,2332,0,0,0,0,0,0,0,0,0,2351,2351,2351,2352,2352,2351,2351,2351,0,2346,2346,2346,2346,2345,2345,2345,2345,2345,2345,2345,2345,2345,2346,2346,2355,2355,2355,2346,2346,2336,2336,2323,2323,2323,2323,2323,0,2325,2325,2325,0,0,0,0,0,0,0,0,0,0,0,0,2313,2313,2313,0,2322,2322,2322,2322,2322,2322,2321,2321,2318,2318,2317,2317,2316,2316,2316,2357,2357,2359,2359,0,2359,2359,2358,2358,2358,2357,2357,2355,2355,2354,2354,2353,2353,2334,2334,2332,2332,2332,2332,2332,2332,2332,2332,2332,2332,2332,2332,2332,2333,2333,2334,2334,2335,2335,2337,2337,2339,2339,2339,2339,2340,2375,2375,2385,2385,2385,2385,2385,2385,2385,2354,2354,2339,2339,2336,2336,2335,2335,2335,2335,2335,2335,2335,2335,2335,2335,2335,2339,2339,2341,2341,2353,2353,2353,2353,2366,2353,2340,2340,2340,2340,2340,2340,2340,2340,2340,2354,2354,2354,2354,2354,2354,2355,2355,2360,2360,2361,2361,2361,2361,2362,2362,2362,2362,2362,2362,2362,2352,2352,2351,2351,2350,2350,2350,2350,2351,2351,2365,2365,2366,2366,2378,2378,2378,2378,2379,2379,2380,2380,2382,2377,2377,2374,2374,2357,2357,2354,2354,2353,2353,2340,2340,2338,2338,2338,2339,2339,2359,2359,2360,2360,2360,2360,2360,2360,2359,2359,2344,2344,2344,2344,2343,2343,2343,2343,2343,2361,2361,2374,2374,2381,2381,2382,2382,2383,2383,2400,2400,2400,2390,2390,2385,2385,2379,2379,2379,2393,2393,2397,2397,2405,2405,2404,2404,2404,2404,2401,2401,2400,2400,2400,0,2441,2441,2441,0,0,0,2430,2430,2430,0,2402,2402,2397,2397,2397,2397,2397,2403,2403,2408,2406,2406,2405,2405,2405,2405,2405,2405,2405,2406,2407,2393,2393,2393,2394,2394,0,2395,2395,2395,0,0,0,0,0,0,0,0,0,0,0,0,0,0,0,0,0,0,0,0,0,0,0,0,0,0,0,0,0,0,0,0,0,0,0,0,0,0,0,0,0,0,0,0,0,0,0,0,0,0,0,0,0,0,0,0,0,0,2432,2432,2432,0,2433,2433,2433,2444,2444,0,0,0,0,0,0,0,0,0,0,0,0,0,0,0,0,0,0,0,0,0,0,0,0,0,0,0,0,0,0,0,0,0,0,0,0,0,0,0,0,0,0,0,0,0,0,0,0,0,0,0,0,0,0,0,0,0,0,0,0,0,0,0,0,0,0,0,0,0,0,0,0,0,0,0,0,0,0,0,0,0,0,0,0,2461,2461,2455,2455,2455,0,2491,2491,2491,0,0,0,0,0,0,0,0,0,0,0,0,0,0,0,0,0,0,0,0,0,0,0,0,0,0,0,0,0,0,0,0,0,0,2420,2420,2420,0,2408,2408,2408,2408,2408,0,0,0,0,0,0,0,0,0,0,0,0,0,0,0,0,0,0,0,0,0,0,0,0,0,0,0,0,0,0,0,0,0,0,0,0,2351,2351,2339,2339,2319,2319,2319,2319,2319,2319,2319,0,0,0,0,0,0,0,0,0,0,0,0,0,0,0,0,0,0,0,0,0,0,0,0,0,0,0,0,0,0,0,0,0,0,0,0,0,0,0,0,2011,2011,2011,0,0,0,0,0,0,0,0,0,0,0,0,0,0,0,0,0,0,0,0,0,0,0,0,0,0,0,0,0,0,0,0,0,0,0,0,0,0,0,0,0,0
1873,1873,1873,0,1876,1876,1876,0,0,0,0,0,0,0,0,0,0,0,0,0,0,0,0,0,0,0,0,0,0,0,0,0,0,0,0,0,0,0,0,0,0,0,0,0,0,0,0,0,0,0,0,0,0,0,0,0,2064,2064,2064,2065,2065,0,0,0,0,0,0,0,0,0,0,0,0,0,0,0,0,0,0,0,0,0,0,0,0,0,0,0,0,0,0,0,0,0,0,0,0,0,0,0,0,0,0,0,0,2347,2347,2347,2347,2347,2347,2336,2336,2336,2336,2336,2337,2337,0,0,0,0,0,0,0,0,0,0,0,0,0,0,0,0,0,0,2338,2338,2338,2338,2337,2337,2337,0,2330,2330,2330,0,0,0,0,0,2300,2300,2300,2300,2300,2300,2301,2301,2312,2312,2322,2322,2322,2322,2323,2323,0,0,0,0,0,0,0,0,0,0,0,2337,2337,2324,2324,2324,0,0,0,2320,2320,2320,2321,2321,0,0,2323,2323,2323,2325,2325,2330,2330,2332,2332,0,2341,2341,2341,2341,2340,2340,2333,2333,2333,2333,2333,2333,2332,2332,2329,2329,2328,2328,2328,2337,2337,2337,2337,2337,2337,2337,2338,2338,2341,2341,2342,2342,2342,2342,2342,2335,2335,2334,2334,2333,2333,2333,2333,2332,2332,2331,2331,2331,2346,2346,0,0,0,0,0,2351,2351,2351,2352,2352,2351,2351,2351,0,2346,2346,2346,2346,2345,2345,2345,2345,2345,2345,2345,2345,2345,2346,2346,2355,2355,2355,2346,2346,2335,2335,2322,2322,2322,2322,2322,2322,2322,2323,2323,0,0,0,0,0,0,0,0,0,0,0,0,2313,2313,2313,0,2313,2313,2313,2321,2320,2320,2319,2319,2318,2318,2317,2317,2316,2316,2316,2343,2343,2357,2357,2358,2358,2358,2358,2357,2357,2356,2356,2354,2354,2353,2353,2351,2351,2334,2334,2332,2332,2332,2332,2332,2332,2332,2332,2332,2332,2332,2332,2332,2333,2333,2334,2334,2335,2335,2337,2337,2338,2338,2339,2339,2340,2375,2375,2385,2385,2385,2385,2385,2385,2385,2354,2354,2339,2339,2336,2336,2335,2335,2335,2335,2335,2335,2335,2335,2335,2335,2335,2336,2336,2340,2340,2340,2340,2353,2353,2353,2340,2338,2338,2338,2339,2339,2339,2339,2339,2339,2354,2354,2354,2354,2354,2354,2355,2355,2360,2360,2361,2361,2361,2361,2362,2362,2362,2362,2362,2362,2362,2352,2352,2351,2351,2350,2350,2350,2350,2351,2351,2364,2364,2365,2365,2367,2367,2378,2378,2379,2379,2380,2380,2382,2377,2377,2374,2374,2357,2357,2351,2351,2351,2351,2339,2339,2337,2337,2337,2337,2337,2337,2337,2360,2360,2360,2360,2359,2359,2359,2359,2344,2344,2344,2344,2343,2343,2343,2343,2343,2361,2361,2374,2374,2376,2376,2381,2381,2382,2382,2384,2384,2386,2379,2379,2378,2378,2378,2378,2378,2379,2379,2392,2392,2404,2404,2403,2403,2402,2402,2401,2401,2400,2400,2400,0,2441,2441,2441,0,0,0,2430,2430,2398,2398,2396,2396,2396,2397,2397,2397,2397,2397,2397,2402,2402,2403,2403,2404,2404,2404,2392,2392,2391,2391,2392,2392,2392,2392,2393,2393,2394,2394,2395,2395,2396,2396,0,0,0,0,0,0,0,0,0,0,0,0,0,0,0,0,0,0,0,0,0,0,0,0,0,0,0,0,0,0,0,0,0,0,0,0,0,0,0,0,0,0,0,0,0,0,0,0,0,0,2409,2409,2408,2408,2408,0,2409,2409,2409,2419,2419,2433,2433,2444,2444,0,0,0,0,0,0,0,0,0,0,0,0,0,0,0,0,0,0,0,0,0,0,0,0,0,0,0,0,0,0,0,0,0,0,2375,2375,2375,0,0,0,0,0,0,0,0,0,0,0,0,0,0,0,0,0,0,0,0,0,0,0,0,0,0,0,0,0,0,0,0,0,0,0,0,0,0,0,0,0,0,0,0,0,2461,2461,2461,2461,2455,2455,2455,0,2491,2491,2491,0,0,0,0,0,0,0,0,0,0,0,0,0,0,0,0,0,0,0,0,0,0,0,0,0,0,0,0,0,0,0,0,0,0,2420,2420,2419,2419,2408,2408,2408,2408,2408,2427,2427,0,0,0,0,0,0,0,0,0,0,0,0,0,0,0,0,0,0,0,0,0,0,0,0,0,0,0,0,0,0,0,0,0,0,0,0,2339,2339,2319,2319,2319,0,2319,2319,2319,0,0,0,0,0,0,0,0,0,0,0,0,0,0,0,0,0,0,0,0,0,0,0,0,0,0,0,0,0,0,0,0,0,0,0,0,0,0,0,0,2011,2011,2011,0,0,0,0,0,0,0,0,0,0,0,0,0,0,0,0,0,0,0,0,0,0,0,0,0,0,0,0,0,0,0,0,0,0,0,0,0,0,0,0,0,0
1873,1873,1871,1871,1871,1876,1876,0,0,0,0,0,0,0,0,0,0,0,0,0,0,0,0,0,0,0,0,0,0,0,0,0,0,0,0,0,0,0,0,0,0,0,0,0,0,0,0,0,0,0,0,0,0,0,0,0,2064,2064,2064,2065,2065,0,0,0,0,0,0,0,0,0,0,0,0,0,0,0,0,0,0,0,0,0,0,0,0,0,0,0,0,0,0,0,0,0,0,0,0,0,0,0,0,0,0,0,0,2336,2336,2336,2347,2347,2347,2336,2336,2336,2336,2336,0,0,0,0,0,0,0,0,0,0,0,0,0,0,0,0,0,0,0,0,0,0,0,0,0,0,0,0,2330,2330,2330,0,0,0,0,0,0,0,0,0,0,0,0,0,0,2322,2322,2322,2322,2322,2323,2323,0,0,0,0,0,0,0,0,0,0,0,2337,2337,2324,2324,2324,0,0,0,2320,2320,2320,2321,2321,0,0,2323,2323,2323,2325,2325,2330,2330,0,0,0,2341,2341,2341,0,2340,2340,2340,2340,2335,2335,2335,2335,2335,2335,2335,2335,2335,2336,2336,2337,2337,2337,2337,2337,2337,2337,2338,2338,2341,2341,2342,2342,2342,2342,2342,2336,2336,2334,2334,2333,2333,2333,2333,2332,2332,2331,2331,2331,2346,2346,0,0,0,0,0,2352,2352,2352,2352,2352,2352,2352,2352,0,0,0,0,0,2345,2345,2345,2345,2345,2345,2345,2346,2346,2356,2356,2356,2355,2355,2352,2352,2335,2335,2322,2322,2322,2322,2322,2322,2322,2323,2323,0,0,0,0,0,0,0,0,0,0,0,0,0,0,0,0,2313,2313,2313,2321,2320,2320,2319,2319,2318,2318,2318,2318,2317,2317,2317,2343,2343,2357,2357,2358,2358,2358,2358,2357,2357,2356,2356,2354,2354,2353,2353,2351,2351,2350,2350,2333,2333,2332,2332,2332,2332,2332,2332,2332,2332,2332,2332,2332,2334,2334,2334,2334,2336,2336,2337,2337,2338,2338,2339,2339,2340,2376,2376,2385,2385,2385,2385,2385,2385,2385,2368,2368,2353,2353,2340,2340,2335,2335,2335,2335,2335,2335,2335,2335,2335,2335,2335,2336,2336,2340,2340,2340,2340,2353,2353,2353,2340,2338,2338,2338,2339,2339,2339,2339,2339,2339,2354,2354,2355,2355,2358,2358,2360,2360,2361,2361,2361,2361,2362,2362,2362,2362,2362,2362,2371,2371,2373,2361,2361,2352,2352,2351,2351,2351,2352,2354,2354,2364,2364,2365,2365,2367,2367,2378,2378,2380,2380,2384,2384,2385,2385,2385,2375,2375,2358,2358,2351,2351,2351,2351,2339,2339,2337,2337,2337,2337,2337,2337,2337,2360,2360,2360,2360,2359,2359,2359,2359,2344,2344,2344,2344,2344,2344,2343,2343,2343,2363,2363,2374,2374,2376,2376,2381,2381,2382,2382,2384,2384,2386,2379,2379,2378,2378,2378,2378,2378,2379,2379,2392,2392,2404,2404,2403,2403,2402,2402,2401,2401,2401,0,0,0,0,0,0,0,0,0,0,0,2398,2398,2396,2396,2396,2397,2397,2397,2397,2397,2397,2402,2402,2403,2403,2404,2404,2404,2392,2392,2391,2391,2392,2392,2392,2392,2393,2393,2394,2394,2395,2395,2396,2396,0,0,0,0,0,0,0,0,0,0,0,0,0,0,0,0,0,0,0,0,0,0,0,0,0,0,0,0,0,0,0,0,0,0,0,0,0,0,0,0,0,0,0,0,0,0,0,0,0,0,2409,2409,2408,2408,2408,0,2409,2409,2409,2419,2419,0,0,0,0,0,0,0,0,0,0,0,0,0,0,0,0,0,0,0,0,0,0,0,0,0,0,0,0,0,0,0,0,0,0,0,0,0,0,2375,2375,2375,0,0,0,0,0,0,0,0,0,0,0,0,0,0,0,0,0,0,0,0,0,0,0,0,0,0,0,0,0,0,0,0,0,0,0,0,0,0,0,0,0,0,0,0,0,2461,2461,2461,0,0,0,0,0,0,0,0,0,0,0,0,0,0,0,0,0,0,0,0,0,0,0,0,0,0,0,0,0,0,0,0,0,0,0,0,0,0,0,0,0,0,0,0,2419,2419,2419,0,2417,2417,2417,2427,2427,0,0,0,0,0,0,0,0,0,0,0,0,0,0,0,0,0,0,0,0,0,0,0,0,0,0,0,0,0,0,0,0,0,0,0,0,2339,2339,2319,2319,2319,0,2319,2319,2319,0,0,0,0,0,0,0,0,0,0,0,0,0,0,0,0,0,0,0,0,0,0,0,0,0,0,0,0,0,0,0,0,0,0,0,0,0,0,0,0,0,0,0,0,0,0,0,0,0,0,0,0,0,0,0,0,0,0,0,0,0,0,0,0,0,0,0,0,0,0,0,0,0,0,0,0,0,0,0,0,0,0,0,0,0
0,0,1871,1871,1871,1876,1876,0,0,0,0,0,0,0,0,0,0,0,0,0,0,0,0,0,0,0,0,0,0,0,0,0,0,0,0,0,0,0,0,0,0,0,0,0,0,0,0,0,0,0,0,0,0,0,2064,2064,2064,2064,2064,2065,2065,2065,2065,0,0,0,0,0,0,0,0,0,0,0,0,0,0,0,0,0,0,0,0,0,0,0,0,0,0,0,0,0,0,0,0,0,0,0,0,0,0,0,0,0,0,2336,2336,2336,2336,2336,2336,2336,2336,2336,2336,2336,2336,2336,0,0,0,0,0,0,0,0,0,0,0,0,0,0,0,0,0,0,0,0,0,0,0,0,2327,2327,2327,2327,2327,2328,2328,2333,2333,2333,2333,0,0,0,0,0,0,2306,2306,2306,2320,2320,2322,2322,2323,2323,0,0,0,0,0,2338,2338,2338,0,2337,2337,2336,2336,2323,2323,2318,2318,2318,2319,2319,2320,2320,2321,2321,2320,2320,2320,2321,2321,2323,2323,2327,2327,0,0,0,2340,2340,2340,0,2340,2340,2340,2340,2335,2335,2335,2335,2335,2335,2335,2335,2335,2336,2336,2337,2337,2337,2337,2337,2337,2336,2336,2333,2333,2333,2342,2342,2342,2342,2342,2336,2336,2334,2334,2333,2333,2332,2332,2332,2332,2331,2331,2331,2346,2346,0,0,0,0,0,2352,2352,2352,2352,2352,2352,2352,2352,2353,2353,0,0,0,2345,2345,2345,2345,2345,2345,2345,2346,2346,2356,2356,2356,2355,2355,2352,2352,2334,2334,2321,2321,2320,2320,2319,2319,2319,2323,2323,0,0,0,0,0,0,0,0,0,0,0,0,0,0,2303,2303,2303,2303,2303,2314,2314,2319,2319,2319,2318,2318,2318,2318,2317,2317,2317,2343,2343,2352,2352,2358,2358,2358,2357,2356,2356,2354,2354,2352,2352,2351,2351,2350,2350,2349,2349,2333,2333,2332,2332,2332,2332,2331,2331,2327,2327,2320,2320,2320,2329,2329,2334,2334,2336,2336,2337,2337,2338,2338,2339,2339,2340,2360,2360,2377,2377,2385,2385,2385,2384,2384,2368,2368,2353,2353,2340,2340,2335,2335,2335,2335,2335,2335,2335,2335,2335,2335,2335,2335,2335,2336,2336,2339,2339,2341,2336,2336,2334,2333,2333,2333,2334,2334,2335,2335,2338,2338,2339,2339,2355,2355,2358,2358,2359,2359,2360,2360,2361,2361,2362,2362,2362,2362,2362,2362,2371,2371,2373,2361,2361,2352,2352,2351,2351,2351,2352,2354,2354,2358,2358,2364,2364,2366,2366,2370,2370,2376,2376,2384,2384,2385,2385,2385,2374,2374,2358,2358,2351,2351,2351,2351,2339,2339,2337,2337,2337,2337,2337,2337,2337,2337,2337,2359,2359,2359,2359,2345,2345,2344,2344,2344,2344,2344,2344,2343,2343,2343,2363,2363,2374,2374,2375,2375,2377,2377,2379,2379,2379,2379,2379,2378,2378,2378,2378,2378,2378,2378,2378,2378,2389,2389,2404,2403,2403,2403,2402,2402,2401,2401,2400,2400,2400,0,0,0,0,0,0,0,0,0,2396,2396,2396,2396,2396,2396,2396,2396,2396,2397,2397,2397,2397,2401,2401,2403,2392,2392,2391,2391,2391,2391,2391,2391,2392,2392,2393,2393,2394,2394,2395,2395,2396,2396,2397,2397,2398,2389,2389,2368,2368,2360,2360,2358,2358,2358,2358,2358,0,0,0,0,0,0,0,0,0,2385,2385,2385,2369,2369,2369,0,2369,2369,2369,0,0,0,0,0,0,0,0,0,0,0,0,0,0,0,2408,2408,2408,2408,2408,2408,2408,2409,2409,2409,2409,2410,2410,2444,2444,0,0,0,0,0,0,0,0,0,0,0,0,0,0,0,0,0,0,0,0,0,0,0,0,0,0,0,0,0,0,0,0,0,0,0,0,2375,2375,2369,2369,2369,2371,2371,0,0,0,0,0,0,0,0,0,0,0,0,0,0,0,0,0,0,0,0,0,0,0,0,0,0,0,0,0,0,0,0,0,0,0,0,0,0,0,0,0,2461,2461,2396,2396,2396,0,0,0,0,0,0,0,0,0,0,0,0,0,0,0,0,0,0,0,0,0,0,0,0,0,0,0,0,0,0,0,0,0,0,0,0,0,0,0,0,0,0,2419,2419,2419,2421,2417,2417,2417,2427,2427,2428,2428,0,0,0,0,0,0,0,0,0,0,0,0,0,0,0,0,0,0,0,0,0,0,0,0,0,0,0,0,0,0,0,0,0,0,0,0,0,0,0,0,0,0,0,0,0,0,0,0,0,0,0,0,0,0,0,0,0,0,0,0,0,0,0,0,0,0,0,0,0,0,0,0,0,0,0,0,0,0,0,0,0,0,0,0,0,0,0,0,0,0,0,0,0,0,0,0,0,0,0,0,0,0,0,0,0,0,0,0,0,0,0,0,0,0,0,0,0,0,0,0,0,0,0,0,0,0,0,0
0,0,1868,1868,1868,1874,1876,0,0,0,0,0,0,0,0,0,0,0,0,0,0,0,0,0,0,0,0,0,0,0,0,0,0,0,0,0,0,0,0,0,0,0,0,0,0,0,0,0,0,0,0,0,0,0,2064,2064,2064,2065,2065,2065,2065,2065,2065,0,0,0,0,0,0,0,0,0,0,0,0,0,0,0,0,0,0,0,0,0,0,0,0,0,0,0,0,0,0,0,0,0,0,0,0,0,0,0,0,0,0,2336,2336,2336,2336,2336,2336,2336,2336,2336,2336,2335,2335,2335,2335,2335,2335,0,0,0,0,0,0,0,0,0,0,0,0,0,0,0,0,0,0,0,0,0,2327,2327,2327,2327,2327,2328,2328,2333,2333,2333,2333,0,0,0,0,0,0,2306,2306,2306,2320,2320,2323,2323,0,0,0,0,0,0,0,2338,2338,2338,0,2337,2337,2336,2336,2323,2323,2318,2318,2318,2319,2319,2320,2320,0,0,2320,2320,2320,2321,2321,2323,2323,2327,2327,0,0,0,2340,2340,2340,0,2340,2340,2340,2340,2336,2336,2335,2335,2335,2336,2336,2336,2336,2337,2337,2337,2337,2337,2337,2337,2337,2336,2336,2333,2333,2333,2342,2342,2342,2342,2342,2339,2339,2334,2334,2333,2333,2332,2332,2332,2332,2331,2331,2331,0,0,0,0,0,0,0,2352,2352,2352,2352,2352,2352,2353,2353,2353,2353,0,0,0,2345,2345,2345,2345,2345,2354,2354,2358,2358,2385,2385,2385,2361,2361,2354,2354,2334,2334,2321,2321,2320,2320,2319,2319,2319,0,0,0,0,0,0,0,0,0,0,0,0,0,0,0,0,2303,2303,2303,2303,2303,2314,2314,2319,2319,2319,2318,2318,2318,2318,2318,2318,2318,2343,2343,2352,2352,2358,2358,2358,2357,2356,2356,2354,2354,2352,2352,2351,2351,2350,2350,2349,2349,2347,2347,2332,2332,2332,2332,2331,2331,2327,2327,2320,2320,2320,2329,2329,2335,2335,2336,2336,2337,2337,2339,2339,2339,2340,2340,2360,2360,2377,2377,2385,2385,2385,2384,2384,2372,2372,2353,2353,2353,2353,2341,2341,2335,2335,2335,2335,2335,2335,2335,2335,2335,2335,2335,2336,2336,2339,2339,2341,2336,2336,2334,2333,2333,2333,2334,2334,2335,2335,2338,2338,2339,2339,2357,2357,2358,2358,2359,2359,2360,2360,2361,2361,2362,2362,2362,2362,2375,2375,2376,2376,2376,2365,2365,2360,2360,2354,2354,2354,2355,2356,2356,2358,2358,2364,2364,2366,2366,2370,2370,2376,2376,2386,2386,2386,2386,2386,2374,2374,2359,2359,2351,2351,2351,2351,2342,2342,2337,2337,2337,2337,2337,2337,2337,2337,2337,2359,2359,2359,2359,2345,2345,2345,2345,2344,2344,2344,2344,2344,2344,2344,2364,2364,2374,2374,2375,2375,2377,2377,2379,2379,2379,2379,2379,2378,2378,2378,2378,2378,2378,2378,2378,2378,2389,2389,2404,2403,2403,2403,2402,2402,2401,2401,2400,2400,2400,0,0,0,0,0,0,0,0,0,2396,2396,2396,2396,2396,2396,2396,2396,2396,2397,2397,2397,2397,2401,2401,2403,2392,2392,2391,2391,2391,2391,2391,2391,2392,2392,2393,2393,2394,2394,2396,2396,2397,2397,2397,2397,2398,2389,2389,2368,2368,2360,2360,2358,2358,2358,2358,2358,0,0,0,0,0,0,0,0,0,2385,2385,2385,2369,2369,2369,0,2369,2369,2369,0,0,0,0,0,0,0,0,0,0,0,0,0,0,0,2408,2408,2408,2408,2408,2408,2408,2409,2409,2409,2409,2410,2410,2444,2444,0,0,0,0,0,0,0,0,0,0,0,0,0,0,0,0,0,0,0,0,0,0,0,0,0,0,0,0,0,0,0,0,0,0,0,0,2375,2375,2369,2369,2369,2371,2371,0,0,0,0,0,0,0,0,0,0,0,0,0,0,0,0,0,0,0,0,0,0,0,0,0,0,0,0,0,0,0,0,0,0,0,0,0,0,0,0,0,0,0,2396,2396,2396,0,0,0,0,0,0,0,0,0,0,0,0,0,0,0,0,0,0,0,0,0,0,0,0,0,0,0,0,0,0,0,0,0,0,0,0,0,0,0,0,0,0,0,0,2421,2421,2421,0,2427,2427,2427,2428,2428,0,0,0,0,0,0,0,0,0,0,0,0,0,0,0,0,0,0,0,0,0,0,0,0,0,0,0,0,0,0,0,0,0,0,0,0,0,0,0,0,0,0,0,0,0,0,0,0,0,0,0,0,0,0,0,0,0,0,0,0,0,0,0,0,0,0,0,0,0,0,0,0,0,0,0,0,0,0,0,0,0,0,0,0,0,0,0,0,0,0,0,0,0,0,0,0,0,0,0,0,0,0,0,0,0,0,0,0,0,0,0,0,0,0,0,0,0,0,0,0,0,0,0,0,0,0,0,0
0,0,1868,1868,1868,1874,0,0,0,0,0,0,0,0,0,0,0,0,0,0,0,0,0,0,0,0,0,0,0,0,0,0,0,0,0,0,0,0,0,0,0,0,0,0,0,0,0,0,0,0,0,0,0,0,2064,2064,2064,2065,2065,2065,2065,2065,2065,2080,2080,0,0,0,0,0,0,0,0,0,0,0,0,0,0,0,0,0,0,0,0,0,0,0,0,0,0,0,0,0,0,0,0,0,0,0,0,0,0,0,0,2336,2336,2336,0,2336,2336,2336,2336,2336,2336,2335,2335,2335,2335,2335,2335,0,0,0,0,0,0,0,0,0,0,0,0,0,0,0,0,0,0,0,0,0,2327,2327,2327,2327,2327,2327,2327,2333,2333,2333,2333,2350,2350,0,0,2304,2304,2304,2306,2306,2320,2320,2323,2323,2337,2337,2338,2338,2338,2338,0,2338,2338,2337,2337,2337,2337,2336,2336,2323,2323,2318,2318,2318,2318,2318,2318,2318,2318,2318,2318,2318,2318,2319,2319,2319,2319,2327,2327,0,2329,2329,2329,2330,2330,2340,2340,2340,2338,2338,2336,2336,2335,2335,2335,2336,2336,2336,2336,2337,2337,2337,2337,2337,2337,2336,2336,2327,2327,2324,2324,2324,2324,2324,2342,2341,2341,2339,2339,2334,2334,2333,2333,2332,2332,2331,2331,2331,2331,2331,0,0,0,0,0,0,0,2352,2352,2352,2352,2352,2342,2342,2342,2353,2353,0,0,0,2345,2345,2345,2345,2345,2354,2354,2358,2358,2385,2385,2385,2361,2361,2353,2353,2333,2333,2319,2319,2318,2318,2316,2316,2315,2315,2315,0,0,0,0,0,0,0,0,0,0,0,0,0,0,2303,2303,2303,2303,2303,2304,2304,2315,2315,2318,2318,2318,2318,2318,2318,2318,2318,2343,2343,2351,2351,2351,2351,2352,2353,2352,2352,2351,2351,2350,2350,2350,2350,2349,2349,2348,2348,2347,2347,2332,2332,2332,2332,2331,2331,2320,2320,2319,2319,2318,2318,2318,2318,2318,2318,2318,2320,2320,2321,2321,2322,2339,2339,2340,2340,2361,2361,2377,2377,2381,2375,2375,2372,2372,2353,2353,2353,2353,2339,2339,2335,2335,2335,2335,2335,2335,2335,2335,2335,2335,2335,2335,2335,2335,2335,2335,2334,2334,2334,2333,2333,2333,2334,2334,2335,2335,2336,2336,2338,2338,2355,2355,2358,2358,2359,2359,2360,2360,2361,2361,2362,2362,2362,2362,2375,2375,2376,2376,2376,2365,2365,2360,2360,2354,2354,2354,2355,2356,2356,2356,2356,2358,2358,2363,2363,2367,2367,2372,2372,2386,2386,2386,2386,2386,2374,2374,2359,2359,2351,2351,2351,2351,2342,2342,2337,2337,2337,2337,2337,2337,2337,2337,2337,2338,2338,2346,2346,2345,2345,2345,2345,2344,2344,2344,2344,2344,2344,2344,2364,2364,2365,2365,2374,2374,2375,2375,2378,2378,2379,2379,2379,2378,2378,2378,2378,2378,2378,2378,2378,2378,2387,2387,2403,2403,2402,2402,2402,2402,2401,2401,2400,2400,2400,0,0,0,0,0,2377,2377,2377,0,2377,2377,2377,2396,2396,2396,2396,2396,2396,2396,2396,2396,2396,2396,2394,2394,2391,2391,2391,2391,2391,2391,2391,2391,2391,2391,2392,2392,2393,2393,2396,2396,2397,2397,2397,2397,2398,2373,2373,2360,2360,2358,2358,2358,2358,2357,2357,2357,2357,2357,0,0,0,0,0,0,0,2385,2385,2370,2369,2369,2369,0,2369,2369,2369,0,0,0,0,0,0,0,0,0,0,0,0,0,2405,2405,2405,2407,2407,2408,2408,2408,2408,2409,2409,2409,2409,2410,2410,2413,2413,0,0,0,0,0,0,0,0,0,0,0,0,0,0,0,0,0,0,2391,2391,2391,0,2401,2401,2401,2401,2401,0,0,0,0,0,2414,2414,2399,2399,2374,2374,2367,2367,2366,2366,2366,0,0,0,0,0,0,0,0,0,0,0,0,0,0,0,0,0,0,0,0,0,0,0,0,0,0,0,0,0,0,0,0,0,0,0,0,0,0,0,0,0,2410,2410,2396,2396,2396,2397,2397,0,2398,2398,2398,0,0,0,0,0,0,0,0,0,0,0,0,0,0,0,0,0,0,0,0,0,0,0,0,0,0,0,0,0,0,0,0,0,0,0,0,0,0,2421,2421,2421,0,2427,2427,2427,2428,2428,0,0,0,0,0,0,0,0,0,0,0,0,0,0,0,0,0,0,0,0,0,0,0,0,0,0,0,0,0,0,0,0,0,0,0,0,0,0,0,0,0,0,0,0,0,0,0,0,0,0,0,0,0,0,0,0,0,0,0,0,0,0,0,0,0,0,0,0,0,0,0,0,0,0,0,0,0,0,0,0,0,0,0,0,0,0,0,0,0,0,0,0,0,0,0,0,0,0,0,0,0,0,0,0,0,0,0,0,0,0,0,0,0,0,0,0,0,0,0,0,0,0,0,0,0,0,0,0
0,0,1868,1868,1868,1868,1876,1876,0,0,0,1895,1895,1895,1916,1916,1920,1920,0,0,0,0,0,0,0,0,0,0,0,0,0,0,0,0,0,0,0,0,0,0,0,0,0,0,0,0,0,0,0,0,0,0,0,0,2065,2065,2065,2065,2065,2065,2065,2066,2066,2080,2080,0,0,0,0,0,0,0,0,0,0,0,0,0,0,0,0,0,0,0,0,0,0,0,0,0,0,0,0,0,0,0,0,0,0,0,0,0,0,0,0,2336,2336,2336,2336,2336,2336,2336,2336,2335,2335,2335,2335,2335,2335,2335,2335,0,0,0,0,0,0,0,0,0,0,0,0,0,0,0,0,0,0,0,0,0,2327,2327,2327,2327,2327,2327,2327,2333,2333,2349,2349,2350,2350,0,0,2304,2304,2304,0,2322,2322,2322,2323,2323,2337,2337,2338,2338,2338,2338,0,0,0,2337,2337,2337,0,0,0,0,0,2318,2318,2318,2318,2318,2318,2318,2318,2318,2318,2318,2318,2319,2319,2319,2319,0,0,0,2329,2329,2329,2330,2330,2340,2340,2340,2338,2338,2337,2337,2336,2336,2336,2336,2336,2336,2336,2337,2337,2337,2337,2337,2337,2336,2336,2327,2327,2324,2324,2324,2324,2324,2342,2341,2341,2341,2341,2335,2335,2333,2333,2332,2332,2331,2331,2331,0,0,0,0,0,0,0,0,0,2353,2353,2353,2353,2353,2342,2342,2342,0,0,0,0,0,0,0,2362,2362,2362,2366,2366,2385,2385,2385,2385,2385,2385,2385,2353,2353,2333,2333,2319,2319,2318,2318,2316,2316,2315,2315,2315,0,0,0,0,0,0,0,0,0,0,0,0,0,0,2304,2304,2304,2304,2304,2304,2304,2315,2315,2318,2318,2318,2318,2318,2318,2338,2338,2343,2343,2351,2351,2351,2351,2352,2353,2352,2352,2351,2351,2350,2350,2350,2350,2349,2349,2348,2348,2347,2347,2332,2332,2332,2332,2332,2332,2320,2320,2319,2319,2318,2318,2318,2318,2318,2318,2318,2320,2320,2321,2321,2322,2339,2339,2340,2340,2361,2361,2377,2377,2381,2375,2375,2373,2373,2353,2353,2353,2353,2339,2339,2337,2337,2336,2336,2335,2335,2335,2335,2335,2335,2335,2335,2335,2335,2335,2335,2334,2334,2334,2334,2334,2334,2334,2334,2335,2335,2336,2336,2338,2338,2355,2355,2358,2358,2359,2359,2360,2360,2361,2361,2362,2362,2362,2362,2376,2376,2376,2376,2376,2376,2377,2363,2363,2357,2357,2356,2356,2356,2356,2356,2356,2358,2358,2363,2363,2367,2367,2372,2372,2386,2386,2386,2386,2386,2374,2374,2359,2359,2352,2352,2352,2352,2351,2351,2343,2343,2337,2337,2337,2337,2337,2337,2337,2338,2338,2346,2346,2346,2346,2345,2345,2345,2345,2345,2345,2345,2353,2353,2364,2364,2365,2365,2374,2374,2375,2375,2378,2378,2379,2379,2379,2378,2378,2378,2378,2378,2378,2378,2378,2378,2387,2387,2403,2403,2402,2402,2402,2402,2401,2401,2400,2400,2400,0,0,0,0,0,2377,2377,2377,0,2377,2377,2377,2396,2396,0,2396,2396,2396,2396,2396,2396,2396,2396,2394,2394,2391,2391,2391,2391,2391,2391,2391,2391,2391,2391,2392,2392,2393,2393,2396,2396,2397,2397,2397,2397,2398,2373,2373,2360,2360,2358,2358,2358,2358,2357,2357,2357,2357,2357,0,0,0,0,0,0,0,0,0,2370,2369,2369,2369,0,0,0,0,0,0,0,0,0,0,0,0,0,0,0,0,0,2405,2405,2405,2407,2407,2408,2408,2408,2408,2409,2409,2409,2409,2410,2410,2413,2413,0,0,0,0,0,0,0,0,0,0,0,0,0,0,0,0,0,0,2391,2391,2391,0,2401,2401,2401,2401,2401,0,0,0,0,0,2414,2414,2399,2399,2374,2374,2367,2367,2366,2366,2366,0,0,0,0,0,0,0,0,0,0,0,0,0,0,0,0,0,0,0,0,0,0,0,0,0,0,0,0,0,0,0,0,0,0,0,0,0,0,0,0,0,2410,2410,2397,2397,2397,2397,2397,0,2398,2398,2398,0,0,0,0,0,0,0,0,0,0,0,0,0,0,0,0,0,0,0,0,0,0,0,0,0,0,0,0,0,0,0,0,0,0,0,0,0,0,0,0,0,0,2427,2427,2427,0,0,0,0,0,0,0,0,0,0,0,0,0,0,0,0,0,0,0,0,0,0,0,0,0,0,0,0,0,0,0,0,0,0,0,0,0,0,0,0,0,0,0,0,0,0,0,0,0,0,0,0,0,0,0,0,0,0,0,0,0,0,0,0,0,0,0,0,0,0,0,0,2098,2098,2098,0,0,0,0,0,0,0,0,0,0,0,0,0,0,0,0,0,0,0,0,0,0,0,0,0,0,0,0,0,0,0,0,0,0,0,0,0,0,0,0,0,0,0,0,0,0,0,0,0,0,0,0,0,0,0
0,0,0,0,1868,1868,1876,1876,0,0,0,1895,1895,1895,1916,1916,1920,1920,0,0,0,0,0,0,0,0,0,0,0,0,0,0,0,0,0,0,0,0,0,0,0,0,0,0,0,0,0,0,0,0,0,0,0,0,2065,2065,2065,2065,2065,2065,2065,2066,2066,2080,2080,2107,2107,2126,2126,0,2146,2146,2146,0,0,0,0,0,0,0,0,0,0,0,0,0,0,0,0,0,0,0,0,0,0,0,0,0,0,0,0,0,0,0,0,0,0,2336,2336,2336,2336,2336,2336,2335,2335,2335,2335,2335,2335,2335,2335,0,0,0,0,0,0,0,0,0,0,0,0,0,0,0,0,0,0,0,0,0,2327,2327,2326,2326,2326,2327,2327,2333,2333,2349,2349,2350,2335,2328,2328,2304,2304,2304,0,2322,2322,2322,2323,2323,2337,2337,2338,2338,2338,2338,0,0,0,2337,2337,2337,0,2336,2336,2336,0,2318,2318,2318,2318,2317,2317,2317,2317,2318,2318,2318,2318,2318,2318,2319,2319,0,2318,2318,2318,2318,2317,2317,2317,2317,2316,2316,2316,2327,2327,2328,2328,2332,2332,2336,2336,2336,2336,2337,2337,2337,2337,2337,2337,2327,2327,2323,2323,2323,2323,2323,2323,2323,2325,2325,2340,2338,2338,2335,2335,2333,2333,2331,2331,2330,2330,2329,2329,2329,0,0,0,0,0,0,0,2353,2353,2328,2322,2322,2322,2322,2322,2332,2332,0,2367,2367,2367,2367,2362,2362,2362,2366,2366,2385,2385,2385,2385,2385,2385,2385,2333,2333,2319,2319,2319,2319,2316,2316,2316,2316,2314,2314,2314,0,0,0,0,0,0,0,0,0,0,0,0,0,0,2304,2304,2304,2304,2304,2304,2304,2315,2315,2318,2318,2318,2318,2318,2318,2338,2338,2343,2343,2351,2351,2351,2351,2351,2351,2350,2350,2350,2350,2349,2349,2348,2348,2348,2348,2347,2347,2346,2346,2332,2332,2332,2332,2332,2332,2320,2320,2318,2318,2318,2318,2318,2318,2318,2318,2318,2319,2319,2321,2321,2322,2323,2323,2340,2340,2361,2361,2375,2374,2374,2373,2373,2373,2373,2353,2353,2353,2353,2338,2338,2337,2337,2336,2336,2335,2335,2335,2335,2335,2335,2335,2335,2335,2335,2335,2335,2334,2334,2334,2334,2334,2334,2334,2334,2335,2335,2336,2336,2337,2337,2354,2354,2356,2356,2356,2356,2356,2356,2356,2356,2356,2356,2362,2362,2376,2376,2376,2376,2376,2376,2377,2363,2363,2357,2357,2356,2356,2356,2356,2356,2356,2356,2356,2359,2359,2362,2362,2371,2371,2372,2372,2386,2373,2373,2373,2374,2359,2359,2352,2352,2352,2352,2351,2351,2343,2343,2337,2337,2337,2337,2337,2337,2337,2338,2338,2341,2345,2345,2346,2345,2345,2345,2345,2345,2345,2345,2353,2353,2354,2354,2365,2365,2365,2365,2365,2365,2366,2366,2378,2378,2378,2378,2378,2378,2378,2378,2378,2377,2377,2377,2387,2387,2403,2402,2402,2402,2402,2402,2401,2401,2400,2400,2400,0,2398,2398,2398,0,2377,2377,2377,0,2369,2369,2369,2396,2396,0,2395,2395,2395,2396,2396,2396,2395,2395,2393,2393,2391,2391,2390,2390,2390,2390,2391,2391,2391,2391,2392,2392,2393,2393,2396,2396,2397,2397,2397,2397,2398,2372,2372,2360,2360,2357,2357,2344,2344,2343,2343,2343,2343,2343,0,0,0,0,0,0,0,2370,2370,2368,2368,2369,2367,2367,2367,0,0,0,0,0,0,0,0,0,0,0,0,0,2391,2391,2375,2375,2375,2375,2374,2374,2374,2375,2375,2375,2375,2375,2375,2375,2373,2373,2372,2372,2372,0,0,0,0,0,0,0,0,0,0,0,0,0,0,0,0,2391,2391,2391,0,2387,2387,2387,2401,2401,2401,2400,2400,2400,2400,2400,2400,2398,2398,2374,2374,2366,2366,2366,2366,2366,0,0,0,0,0,0,0,0,0,0,0,0,0,0,0,0,0,0,0,0,0,0,0,0,0,0,0,0,0,0,0,0,0,0,0,0,0,0,0,0,0,2410,2410,2397,2397,2397,2397,2397,0,2398,2398,2398,2398,2398,0,0,0,0,0,0,0,0,0,0,0,0,0,0,0,0,0,2374,2374,2374,0,0,0,0,0,0,0,0,0,0,0,0,0,0,0,0,0,0,2426,2426,2426,2427,2427,2428,2428,0,0,0,0,0,0,0,0,0,0,0,0,0,0,0,0,0,0,0,0,0,0,0,0,0,0,0,0,0,0,0,0,0,0,0,0,0,0,0,0,0,0,0,0,0,0,0,0,0,0,0,0,0,0,0,0,0,0,0,0,0,0,0,0,0,0,0,0,0,0,2098,2098,2098,0,0,0,0,0,0,0,0,0,0,0,0,0,0,0,0,0,0,0,0,0,0,0,0,0,0,0,0,0,0,0,0,0,0,0,0,0,0,0,0,0,0,0,0,0,0,0,0,0,0,0,1877,1877,1877,0
0,0,0,0,1868,1868,1876,1876,1876,1876,1895,1895,1895,1895,1916,1916,1920,1920,1942,1942,0,0,0,0,0,1940,1940,1940,0,0,0,0,0,0,0,0,0,0,0,0,0,0,0,0,0,0,0,0,0,0,0,0,0,0,2066,2066,2066,2066,2066,2066,2066,2066,2066,0,2107,2107,2107,2126,2126,0,2146,2146,2146,0,0,0,0,0,0,0,0,0,0,0,0,0,0,0,0,0,0,0,0,0,0,0,0,0,0,0,0,0,0,0,0,2364,2364,2336,2336,2336,2336,2335,2335,2335,2335,2335,2335,2335,2335,2335,2335,0,0,0,0,0,0,0,0,0,0,0,0,0,0,0,0,0,0,0,2348,2348,2336,2336,2326,2326,2326,2334,2334,2349,2349,2349,2349,2349,2335,2328,2328,2328,0,0,0,2324,2324,2324,2325,2325,2341,2341,2382,2382,2382,2382,0,0,0,0,0,0,0,2336,2336,2336,0,2321,2321,2318,2318,2317,2317,2317,2317,0,2318,2318,2318,2318,2318,2319,2319,0,2318,2318,2318,2318,2317,2317,2317,2317,2316,2316,2316,2327,2327,2328,2328,2332,2332,2336,2336,2337,2337,2337,2337,2337,2337,2337,2337,2327,2327,2323,2323,2323,2323,2323,2323,2323,2325,2325,2340,2338,2338,2335,2335,2334,2334,2331,2331,2330,2330,2329,2329,2329,0,0,0,0,0,0,0,0,0,2328,2322,2322,2322,2322,2322,2332,2332,0,2367,2367,2367,2367,2367,2367,2367,2368,2368,2385,2385,2385,2385,2385,2385,2385,2333,2333,2319,2319,2319,0,2316,2316,2316,0,2314,2314,2314,0,0,0,0,0,0,0,0,0,0,0,0,0,0,2311,2311,2304,2304,2304,2305,2305,2316,2316,2318,2318,2318,2318,2330,2330,2340,2340,2351,2351,2351,2351,2351,2351,2351,2351,2350,2350,2350,2350,2349,2349,2348,2348,2348,2348,2347,2347,2346,2346,2346,2346,2332,2332,2332,2332,2324,2324,2318,2318,2318,2318,2318,2318,2318,2318,2318,2319,2319,2321,2321,2322,2323,2323,2340,2340,2361,2361,2375,2374,2374,2373,2373,2373,2373,2353,2353,2353,0,2338,2338,2337,2337,2337,2337,2336,2336,2336,2336,2336,2336,2335,2335,2335,2335,2335,2335,2334,2334,2334,2334,2334,2334,2334,2334,2335,2335,2336,2336,2337,2337,2354,2354,2356,2356,2356,2356,2356,2356,2356,2356,2356,2356,2363,2363,2376,2376,2377,2377,2377,2377,2377,2363,2363,2363,2363,2357,2356,2356,2356,2356,2356,2356,2356,2359,2359,2362,2362,2371,2371,2372,2372,2387,2373,2373,2373,2374,2359,2359,2356,2356,2355,2355,2354,2354,2352,2352,2347,2347,2337,2337,2337,2338,2338,2339,2339,2341,2345,2345,2346,2346,2346,2346,2346,2346,2352,2352,2353,2353,2354,2354,2365,2365,2365,2365,2365,2365,2366,2366,2378,2378,2378,2378,2378,2378,2378,2378,2378,2377,2377,2377,2387,2387,2403,2402,2402,2402,2402,0,0,0,0,0,0,0,2398,2398,2398,0,0,0,0,0,2369,2369,2369,0,0,0,2395,2395,2395,2396,2396,2396,2395,2395,2393,2393,2391,2391,2390,2390,2390,2390,2391,2391,2391,2391,0,2393,2393,2393,2396,2396,2397,2397,2397,2397,2398,2372,2372,2364,2364,2357,2357,2344,2344,2343,2343,2343,2343,2343,0,0,0,0,0,0,0,2370,2370,2368,2368,0,2367,2367,2367,0,0,0,0,0,0,0,0,0,0,0,0,0,2391,2391,2375,2375,2375,2375,2374,2374,2374,2375,2375,2375,2375,2375,2375,2375,2373,2373,2372,2372,2372,0,0,0,0,0,0,0,0,0,0,0,0,0,0,0,0,0,0,0,0,2387,2387,2387,2401,2401,2401,2400,2400,2400,2400,2400,2400,2398,2398,2374,2374,2366,2366,2366,2366,2366,0,0,0,0,0,0,0,0,0,0,0,0,0,0,0,0,0,0,0,0,0,0,0,0,0,0,0,0,0,0,0,0,0,0,0,0,0,0,0,0,0,0,0,2397,2397,2397,2397,2397,0,2398,2398,2398,2398,2398,0,0,0,0,0,0,0,0,0,0,0,0,0,0,0,0,0,2374,2374,2374,0,0,0,0,0,0,0,0,0,0,0,0,0,0,0,0,0,0,2426,2426,2426,2427,2427,2428,2428,0,0,0,0,0,0,0,0,0,0,0,2316,2316,2316,0,2331,2331,2331,2349,2349,0,0,0,0,0,0,0,0,0,0,0,0,0,0,0,0,0,0,0,0,0,0,0,0,0,0,0,0,0,0,0,0,0,0,0,0,0,0,0,0,0,0,0,0,0,0,0,0,2098,2098,2080,2080,2080,0,0,0,0,0,0,0,0,0,0,0,0,0,0,0,0,0,0,0,0,0,0,0,0,0,0,0,0,0,0,0,0,0,0,0,0,0,0,0,0,0,0,0,0,0,0,0,0,0,0,0,1877,1877,1877,0
0,0,0,0,0,1876,1876,1876,1876,1876,1895,1895,1895,1895,1917,1917,0,1942,1942,1942,0,0,0,1941,1941,1940,1940,1940,0,0,0,0,0,0,0,0,0,0,0,0,0,0,0,0,0,0,0,0,0,0,0,0,0,0,2066,2066,2066,2066,2066,2066,2066,2066,2066,2077,2077,2097,2097,2109,2109,2157,2146,2146,2146,0,0,0,0,0,0,0,0,0,0,0,0,0,0,0,0,0,0,0,0,0,0,0,0,0,0,0,0,0,0,0,0,2364,2364,2361,2361,2336,2336,2335,2335,2335,2335,2335,2335,2335,2335,2335,2335,0,0,0,0,0,0,0,0,0,0,0,0,0,0,0,0,0,0,0,2348,2348,2348,2348,2348,2348,2348,2349,2349,2349,2349,2349,2349,2349,2349,2330,2330,2324,2324,2324,2325,2324,2324,2324,2325,2325,2382,2382,0,0,0,0,0,0,0,0,0,0,0,2336,2336,2336,0,2321,2321,2318,2318,2317,2317,2317,2317,0,2317,2317,2317,2318,2318,2319,2319,0,2318,2318,2318,2318,2317,2317,2317,2317,2316,2316,2316,2316,2316,2328,2328,2328,2328,2328,2328,2337,2337,2337,2337,2337,2337,2337,2337,2327,2327,2323,2323,2323,2323,2323,2323,2323,2323,2323,2334,2334,2335,2335,2335,2334,2334,2330,2330,2329,2329,2329,2329,2329,2329,2329,0,0,0,0,0,2328,2328,2320,2320,2321,2321,2321,2321,2322,2322,2332,2332,2367,2367,2367,2367,2367,2367,2368,2368,2369,2369,2385,2385,2385,2382,2382,2333,2333,2319,2319,2315,2315,2315,2316,2304,2304,2304,2304,2304,2304,0,0,0,0,0,0,0,0,0,0,0,0,0,2311,2311,2304,2304,2304,2305,2305,2316,2316,2317,2317,2318,2318,2330,2330,2340,2340,2351,2351,2351,2351,2351,2351,2350,2350,2350,2350,2349,2349,2348,2348,2348,2348,2347,2347,2347,2347,2346,2346,2346,2346,2332,2332,2332,2332,2324,2324,2318,2318,2318,2318,2318,2318,2318,2318,2318,2319,2319,2320,2320,2322,2323,2323,2340,2340,2361,2361,2374,2373,2373,2373,2373,2373,2373,2353,2353,2340,2340,2338,2338,2337,2337,2337,2337,2336,2336,2336,2336,2336,2336,2335,2335,2335,2335,2335,2335,2334,2334,2334,2334,2334,2334,2334,2334,2335,2335,2336,2336,2337,2337,2354,2354,2355,2355,2355,2355,2355,2355,2355,2354,2354,2354,2354,2354,2363,2363,2377,2377,2377,2363,2363,2363,2363,2363,2363,2357,2356,2356,2356,2356,2355,2355,2355,2355,2355,2356,2356,2357,2357,2372,2372,2373,2373,2373,2373,2373,2359,2359,2356,2356,2355,2355,2354,2354,2352,2352,2347,2347,2337,2337,2337,2338,2338,2339,2339,2341,2344,2344,2346,2346,2346,2346,2346,2346,2352,2352,2353,2353,2354,2354,2354,2354,2355,2355,2365,2365,2366,2366,2366,2366,2378,2378,2378,2378,2378,2377,2377,2369,2369,2369,2369,2369,2386,2386,2402,2402,2402,0,0,0,0,0,0,0,2398,2398,2398,0,0,0,0,0,2369,2369,2369,0,2395,2395,2395,2395,2395,2395,2395,2395,2394,2394,2391,2391,2390,2390,2390,2390,2390,2390,2391,2391,2391,2391,2392,2392,2393,2393,2396,2396,2397,2397,2397,2397,2398,2372,2372,2364,2364,2357,2357,2344,2344,2343,2343,2343,2343,2343,2343,2343,0,0,0,0,0,2370,2370,2362,2362,2363,2363,2367,2367,0,2366,2366,2366,2374,2374,0,0,0,0,0,0,0,2376,2376,2375,2375,2364,2364,2364,2364,2364,2364,2364,2364,2363,2363,2363,2363,2363,2363,2363,2363,2363,0,0,0,0,0,0,0,0,0,0,0,0,0,0,0,0,0,0,0,0,2383,2383,2383,2385,2385,2400,2400,2400,2400,2400,2400,2400,2384,2384,2366,2366,2362,2362,2351,2351,2350,2350,2350,0,0,0,0,0,0,0,0,0,0,0,0,0,0,0,0,0,0,0,0,0,0,0,0,0,0,0,0,0,0,0,0,0,0,0,0,0,0,0,0,2367,2367,2397,2397,2397,2397,2398,2398,2398,2398,2398,2398,2399,2399,0,0,0,0,0,0,0,0,0,0,0,0,0,0,0,2374,2374,2374,0,0,0,0,0,0,0,0,0,0,0,0,0,0,0,0,0,0,2426,2426,2426,2426,2426,2428,2428,2428,2428,0,0,0,0,0,0,0,2354,2354,2316,2316,2316,0,2331,2331,2331,2349,2349,0,0,0,0,0,0,0,0,0,0,0,0,0,0,0,0,0,0,0,0,0,0,0,0,0,0,0,0,0,0,0,0,0,0,0,0,0,0,0,0,0,0,0,0,0,0,0,0,2098,2098,2080,2080,2080,2048,2048,2048,0,0,0,0,0,0,0,0,0,0,0,0,0,0,0,0,0,0,0,0,0,0,0,0,0,0,0,0,0,0,0,0,0,0,0,0,0,0,0,0,0,0,0,0,0,0,0,0,1877,1877,1877,0
0,0,0,0,0,1868,1868,1868,1868,1868,1894,1894,1895,1895,1917,1917,0,0,0,0,0,0,0,1941,1941,1941,0,0,0,0,0,0,0,0,0,0,0,0,0,0,0,0,0,0,0,0,0,0,0,0,0,0,0,0,0,0,2067,2067,2067,0,0,0,2077,2077,2077,2097,2097,2109,2109,2157,2157,0,0,0,0,0,0,0,0,0,0,0,0,0,0,0,0,0,0,0,0,0,0,0,0,0,0,0,0,0,0,0,0,0,0,2364,2364,2361,2361,2336,2336,2335,2335,2335,2335,2335,2335,2335,2335,2335,2335,0,0,0,0,0,0,0,0,0,0,0,0,0,0,0,0,0,0,0,2348,2348,2348,2348,2348,2348,2348,2348,2348,2349,2349,2349,2349,2349,2349,2330,2330,2324,2324,2324,2325,2325,2329,2329,2346,2346,2382,2382,0,2382,2382,2382,0,0,0,0,0,2349,2349,2349,0,0,0,0,0,0,0,2317,2317,2317,2317,0,2317,2317,2317,2318,2318,0,0,0,0,0,2318,2318,2317,2317,2317,2317,2316,2316,2316,2316,2316,2328,2328,2328,2328,2328,2328,2337,2337,2337,2337,2337,2337,2337,2337,2337,2337,2323,2323,2323,2323,2323,2323,2323,2323,2323,2334,2334,2335,2335,2335,2334,2334,2330,2330,2329,2329,2329,2329,2329,2329,2329,0,0,0,0,0,2328,2328,2320,2320,2321,2321,2321,2321,2322,2322,2332,2332,0,2367,2367,2367,2367,2367,2368,2368,2369,2369,2385,2385,2385,2382,2382,2333,2333,2333,0,2315,2315,2315,0,2304,2304,2304,2304,2304,2304,0,0,0,0,0,0,0,0,0,0,0,0,0,0,0,2309,2309,2309,2311,2311,2317,2317,2317,2317,2329,2329,2335,2335,2341,2341,2351,2351,2351,2351,2351,2351,2350,2350,2350,2350,2349,2349,2348,2348,2348,2348,2347,2347,2347,2347,2346,2346,2346,2346,2345,2345,2345,2345,2331,2331,2318,2318,2318,2318,2318,2318,2318,2318,2318,2319,2319,2320,2320,2322,2324,2324,2340,2340,2362,2362,2374,2373,2373,2373,2373,2373,0,2353,2353,2340,2340,2339,2339,2338,2338,2337,2337,2336,2336,2336,2336,2336,2336,2335,2335,2335,2335,2335,2335,2334,2334,2334,2334,2334,2334,2335,2335,2336,2336,2336,2336,2353,2353,2354,2354,2355,2355,2355,2355,2355,2355,2355,2354,2354,2354,2354,2354,2363,2363,2377,2377,2377,2363,2363,2363,2363,2363,2363,2357,2356,2356,2356,2356,2355,2355,2355,2355,2355,2356,2356,2357,2357,2372,2372,2373,2373,2373,2373,2373,2359,2359,2359,2359,2358,2358,2357,2357,2356,2356,2352,2352,2349,2349,2339,2339,2339,2340,2340,2342,2344,2344,2346,2346,2347,2347,2350,2350,2352,2352,2353,2353,2354,2354,2354,2354,2355,2355,2365,2365,2366,2366,2366,2366,2378,2378,2378,2378,2378,2377,2377,2369,2369,2369,2369,2369,2386,2386,2402,0,0,0,0,0,0,0,0,0,0,0,0,0,0,0,0,0,0,0,0,0,2395,2395,2395,2395,2395,2395,2395,2395,2394,2394,2391,2391,2390,2390,2390,2390,2390,2390,0,0,0,2392,2392,2392,2393,2393,0,2397,2397,2397,0,0,0,0,0,2374,2374,2357,2357,2356,2356,2356,0,0,0,2343,2343,2343,0,0,0,0,0,2370,2370,2362,2362,2363,2363,0,0,0,2366,2366,2366,2374,2374,0,0,0,0,0,0,0,2376,2376,2375,2375,2364,2364,2364,2364,2364,2364,2364,2364,2363,2363,2363,2363,2363,2363,2363,2363,2363,0,0,0,0,0,0,0,0,0,0,0,0,0,0,0,0,0,0,0,0,2383,2383,2383,2385,2385,2400,2400,2400,2400,2400,2400,2400,2384,2384,2366,2366,2362,2362,2351,2351,2350,2350,2350,0,0,0,0,0,0,0,0,0,0,0,0,0,0,0,0,0,0,0,0,0,0,0,0,0,0,0,0,0,0,0,0,0,0,0,0,0,0,0,0,2367,2367,0,2397,2397,2397,2398,2398,2398,2398,2398,2398,2399,2399,0,0,0,0,0,0,0,0,0,0,0,0,0,0,0,0,0,0,0,0,0,0,0,0,0,0,0,0,0,0,0,0,0,0,0,0,0,0,2426,2426,2426,2428,2428,2428,2428,0,0,0,0,0,0,0,2354,2354,2316,2316,2316,0,2331,2331,2331,2349,2349,0,0,0,0,0,0,0,0,0,0,0,0,0,0,0,0,0,0,0,0,0,0,0,0,0,0,0,0,0,0,0,0,0,0,0,0,0,0,0,0,0,0,0,0,2108,2108,2108,0,2098,2098,2080,2080,2080,2048,2048,2048,0,0,0,0,0,0,0,0,0,0,0,0,0,0,0,0,0,0,0,0,0,0,0,0,0,0,0,0,0,0,0,0,0,0,0,0,0,0,0,0,0,0,0,0,0,0,0,0,0,0,0,0
0,0,0,0,0,1868,1868,1868,1868,1868,1894,1894,1915,1915,1917,1917,0,0,0,1945,1945,1941,1941,1941,1941,1941,0,0,0,0,0,0,0,0,0,0,0,0,0,0,0,0,0,0,0,0,0,0,0,0,0,0,0,0,0,0,2067,2067,2067,0,0,0,2076,2076,2076,2097,2097,2109,2109,2157,2157,0,0,0,0,0,0,0,0,0,0,0,0,0,0,0,0,0,0,0,0,0,0,0,0,0,0,0,0,0,0,0,0,0,0,0,0,2364,2364,2363,2363,2361,2361,2361,0,0,0,2336,2336,0,0,0,0,0,0,0,0,0,0,0,0,0,0,0,0,0,0,0,0,0,2370,2370,2348,2348,2348,2348,2348,2348,2348,2349,2349,0,0,2349,2349,2337,2337,2329,2329,2329,2329,2329,2329,2329,2346,2346,2382,2382,0,2382,2382,2382,0,0,0,0,0,2349,2349,2349,0,0,0,0,0,0,0,2317,2317,2317,2317,2332,2317,2317,2317,2318,2318,0,0,0,0,0,2318,2318,2317,2317,2317,2317,2316,2316,2316,2316,2316,2328,2328,2328,2328,2328,2328,2328,2328,2328,2328,2337,2337,2337,2337,2337,2337,2323,2323,2323,2323,2323,2323,2323,2323,2323,2334,2334,2335,2335,2335,2334,2334,2329,2329,2329,2329,2328,2328,2328,2328,2328,2328,2328,0,0,0,2319,2319,2319,2320,2320,2320,2321,2321,2321,2321,2332,2332,2333,2333,2339,2339,2354,2354,2368,2368,2368,2368,2369,2369,2373,2367,2367,2333,2333,2333,0,2315,2315,2312,2312,2304,2304,2304,2304,2304,2304,2304,2304,2338,2338,0,0,0,0,0,0,0,0,0,0,0,2309,2309,2309,2311,2311,2317,2317,2317,2317,2329,2329,2334,2334,2341,2341,2351,2351,2351,2351,2351,2350,2349,2349,2349,2349,2348,2348,2348,2348,2347,2347,2347,2347,2346,2346,2346,2346,2345,2345,2345,2345,2345,2345,2331,2331,2318,2318,2318,2318,2318,2318,2318,2318,2318,2318,2318,2320,2320,2322,2324,2324,2340,2340,2362,2362,2373,2373,2373,2373,2373,2373,0,2353,2353,2340,2340,2339,2339,2338,2338,2337,2337,2336,2336,2336,2336,2336,2336,2335,2335,2335,2335,2335,2335,2334,2334,2334,2334,2334,2334,2335,2335,2336,2336,2336,2336,2353,2353,2354,2354,2355,2355,2355,2355,2355,2354,2354,2354,2354,2353,2353,2353,2363,2363,2363,2363,2363,2363,2363,2363,2363,2363,2363,2356,2354,2354,2346,2346,2345,2345,2345,2345,2344,2344,2344,2346,2346,2354,2354,2373,2373,2373,2359,2359,2359,2359,2359,2359,2358,2358,2357,2357,2356,2356,2352,2352,2349,2349,2339,2339,2339,2340,2340,2342,2344,2344,2346,2346,2347,2347,2350,2350,2352,2352,2353,2353,2354,2354,2354,2354,2355,2355,2355,2355,2366,2366,2366,2366,2378,2378,2378,2378,2378,2369,2369,2368,2368,2368,2368,2368,2368,2368,2385,2401,2401,0,0,0,0,0,0,0,2360,2360,2360,0,0,0,0,0,0,0,0,0,2395,2395,2395,2395,2395,2395,2395,2395,2377,2377,2377,2378,2378,2389,2389,2389,2389,2390,0,0,0,2392,2392,2392,2393,2393,0,2397,2397,2397,0,0,0,0,0,2374,2374,2357,2357,2356,2356,2343,2343,2343,0,2343,2343,2343,2345,2345,0,2349,2349,2349,2370,2362,2362,2363,2363,0,0,0,2366,2366,2366,2371,2371,2376,2376,2376,2376,0,2376,2376,2376,2376,2363,2363,2363,2364,2364,2364,2364,2364,2364,2364,2363,2363,2363,2363,2362,2362,2361,2361,2361,2366,2366,0,0,0,0,2370,2370,2370,0,0,0,0,0,0,0,0,0,0,0,2383,2383,2382,2382,2382,2400,2400,2400,2400,2400,2400,2400,2365,2365,2348,2348,2341,2341,2341,2341,2341,2341,2341,2341,0,2366,2366,2366,0,2442,2442,2442,2442,2442,0,0,0,0,0,0,0,0,0,0,0,2391,2391,2391,0,2390,2390,2390,2390,2390,0,0,0,0,0,0,0,2366,2366,2366,2366,2367,2367,2397,2397,2398,2398,2398,2398,2398,2398,2399,2399,0,0,0,0,0,0,0,0,0,0,0,0,0,2384,2384,2384,0,2374,2374,2374,0,0,0,2373,2373,2373,0,0,0,0,0,0,0,0,0,0,2426,2426,2418,2418,2417,2417,2416,2416,2416,2429,2415,2415,2415,0,0,0,2354,2354,2354,2354,2353,2353,2350,2350,2349,2349,2349,0,0,0,2356,2356,2356,0,0,0,0,0,0,0,0,0,0,0,0,0,0,0,0,0,0,0,0,0,0,0,0,0,0,0,0,0,0,0,0,0,0,0,0,0,0,2108,2108,2108,0,2098,2098,2098,0,0,2048,2048,2048,0,0,0,0,0,0,0,0,0,0,0,0,0,0,0,0,0,0,0,0,0,0,0,0,0,0,0,0,0,0,0,0,0,0,0,0,0,0,0,0,0,0,0,0,0,0,0,0,0,0,0,0
0,0,0,0,0,1867,1867,1867,1867,1867,1894,1894,1915,1915,1917,1917,0,0,0,1945,1945,1941,1941,1941,1941,1941,0,0,0,0,0,0,0,0,0,0,0,0,0,0,0,0,0,0,0,0,0,0,0,0,0,0,0,0,0,0,0,0,0,0,0,0,2076,2076,2076,2097,2097,2109,2109,2157,2157,0,0,0,0,0,0,0,0,0,0,0,0,0,0,0,0,0,0,0,0,0,0,0,0,0,0,0,0,0,0,0,0,0,0,0,0,2364,2364,2363,2363,2361,2361,2361,0,2342,2342,2336,2336,0,2337,2337,2337,0,0,0,0,0,0,0,0,0,0,0,0,0,0,0,0,0,2370,2370,2348,2348,2348,2348,2348,2348,2348,2349,2349,2349,2349,2349,2349,2337,2337,2329,2329,2329,2329,2329,2329,2329,2346,2346,2382,2382,2382,2382,2382,2382,0,0,0,0,0,2349,2349,2349,0,0,0,0,0,0,0,0,2337,2331,2331,2332,2332,2333,2333,0,0,0,0,0,0,0,2318,2318,2317,2317,2317,2317,2317,2317,2317,2317,2317,2328,2328,2328,2328,2328,2328,2328,2328,2328,2328,2338,2338,2338,2338,2338,2338,2337,2337,2323,2323,2323,2323,2323,2334,2334,2335,2335,2335,2335,2335,2335,2335,2329,2329,2329,0,2328,2328,2328,2328,2328,2328,2328,0,0,0,2319,2319,2319,2320,2320,2320,2321,2321,2321,2321,2333,2333,2333,2333,2339,2339,2354,2354,2368,2368,2368,2368,2369,2369,2373,2367,2367,2334,2334,2334,0,0,0,2312,2312,2304,2304,2304,2304,2304,2304,2304,2304,2338,2338,0,0,0,0,0,0,0,0,0,0,0,0,0,2318,2318,2318,2318,2318,2329,2329,2333,2333,2334,2334,2343,2343,2351,2351,2351,2351,2360,2350,2349,2349,2349,2349,2348,2348,2348,2348,2347,2347,2347,2347,2346,2346,2346,2346,2345,2345,2345,2345,2345,2345,2331,2331,2319,2319,2318,2318,2318,2318,2318,2318,2318,2318,2318,2321,2321,2325,2342,2342,2363,2363,2363,2363,2373,2373,0,0,0,0,0,2366,2366,2341,2341,2339,2339,2339,2339,2338,2338,2337,2337,2336,2336,2336,2336,2336,2336,2335,2335,2335,2335,2335,2350,2351,2351,2351,2351,2351,2351,2351,2351,2351,2351,2353,2353,2355,2355,2355,2355,2355,2355,2355,2354,2354,2354,2354,2353,2353,2353,2363,2363,2363,2363,2363,2363,2363,2363,2363,2363,2363,2356,2354,2354,2346,2346,2345,2345,2345,2345,2344,2344,2344,2346,2346,2354,2354,2373,2373,2373,2359,2359,2359,2359,2359,2359,2359,2359,2359,2359,2359,2359,2359,2359,2351,2351,2346,2346,2342,2342,2342,2343,2344,2344,2346,2346,2349,2349,2351,2351,2352,2352,2353,2353,2354,2354,2354,2354,0,2355,2355,2355,2366,2366,2366,2366,2378,2378,2378,2378,2378,2369,2369,2368,2368,2368,2368,2368,2368,2368,2385,2401,2401,0,0,0,0,0,0,0,2360,2360,2360,0,0,0,0,0,0,0,0,0,0,0,0,0,0,0,0,0,2377,2377,2377,2378,2378,2389,2389,2389,2389,2390,0,0,0,0,0,0,0,0,0,0,0,0,0,0,0,0,0,0,0,0,0,0,0,2343,2343,2343,0,0,0,2345,2345,2345,0,2349,2349,2349,0,0,0,0,0,0,0,0,0,0,2371,2371,2371,2376,2376,2376,2376,0,2376,2376,2376,2376,2363,2363,2363,0,2364,2364,2364,2364,2364,2364,2363,2363,2363,2363,2362,2362,2361,2361,2361,2366,2366,0,0,0,0,2370,2370,2370,0,0,0,0,0,0,0,0,0,0,0,0,0,2382,2382,2382,2400,2400,2400,2400,2400,2400,2400,2365,2365,2348,2348,2341,2341,2341,2341,2341,2341,2341,2341,0,2366,2366,2366,0,2442,2442,2442,2442,2442,0,0,0,0,0,0,0,0,0,0,0,2391,2391,2391,0,2390,2390,2390,2390,2390,0,0,0,0,0,0,0,2366,2366,2366,2366,2367,2367,0,2398,2398,2398,0,0,0,0,0,0,0,0,0,0,0,0,0,0,0,0,0,0,0,2384,2384,2384,0,2374,2374,2374,0,0,0,2373,2373,2373,0,0,0,0,0,0,0,0,0,0,2426,2426,2418,2418,2417,2417,2416,2416,2416,2429,2415,2415,2415,0,0,0,2354,2354,2354,0,2353,2353,2353,2354,2354,0,0,0,0,0,2356,2356,2356,0,0,0,0,0,0,0,0,0,0,0,0,0,0,0,0,0,0,0,0,0,0,0,0,0,0,0,0,0,0,0,0,0,0,0,0,0,0,2108,2108,2108,0,2098,2098,2098,0,0,0,0,0,0,0,0,0,0,0,0,0,0,0,0,0,0,0,0,0,0,0,0,0,0,0,0,0,0,0,0,0,0,0,0,0,0,0,0,0,0,0,0,0,0,0,0,0,0,0,0,0,0,0,0,0
0,0,0,0,0,1867,1867,1867,1867,1867,1894,1894,1916,1916,0,0,0,0,0,1945,1945,1941,1941,1941,1941,1941,0,0,0,0,0,0,0,0,0,0,0,0,0,0,0,0,0,0,0,0,0,0,0,0,0,0,0,0,0,0,0,0,0,0,0,0,2076,2076,2076,2097,2097,2109,2109,2157,2157,0,0,0,0,0,0,0,0,0,0,0,0,0,0,0,0,0,0,0,0,0,0,0,0,0,0,0,0,0,0,0,0,0,0,0,0,2364,2364,2364,0,0,0,0,0,2342,2342,2337,2337,0,2337,2337,2337,0,0,0,0,0,0,0,0,0,0,0,0,0,0,0,0,0,2370,2370,2348,2348,2348,2348,2348,2348,2348,0,2349,2349,2349,2349,2349,2349,0,0,0,0,0,0,0,0,0,2382,2382,2382,2382,2382,0,0,0,0,0,0,0,0,0,0,0,0,0,0,0,0,0,0,2337,2337,2337,0,2335,2335,2335,0,0,0,0,0,0,0,2318,2318,2317,2317,2317,2317,2317,2317,2317,2317,2317,2328,2328,2328,2328,2328,2328,2328,2328,2328,2328,2328,2328,2338,2338,2338,2338,2337,2337,2323,2323,2323,2323,2323,2334,2334,2335,2335,2335,2335,2335,2335,2335,2328,2328,2328,2328,2328,2328,2328,2328,2328,2328,2328,0,2319,2319,2319,2319,2319,2319,2320,2320,2320,2320,2321,2321,2333,2333,2333,2333,2335,2335,2342,2342,2349,2349,2350,2350,2368,2368,2368,2349,2349,2334,2334,2321,2321,2313,2313,2312,2312,2304,2304,2304,2304,2304,2304,2304,2304,2313,2313,0,0,0,0,0,0,0,0,0,2328,2328,2328,0,2318,2318,2318,2318,2318,2329,2329,2333,2333,2333,2333,2339,2339,2351,2351,2351,2351,2360,2350,2349,2349,2348,2348,2348,2348,2347,2347,2347,2347,2347,2347,2346,2346,2346,2346,2345,2345,2331,2331,2331,2331,2321,2321,2319,2319,2318,2318,2318,2318,2318,2318,2318,2318,2318,2321,2321,2325,2342,2342,2363,2363,2363,2363,2371,2371,2372,2371,2371,2371,2371,2366,2366,2341,2341,2339,2339,2339,2339,2338,2338,2337,2337,2336,2336,2336,2336,2336,2336,2335,2335,2335,2335,2335,2350,2351,2351,2351,2351,2351,2351,2351,2351,2351,2351,2353,2353,2355,2355,2355,2355,2355,2354,2354,2353,2353,2352,2352,2352,2352,2352,2363,2363,2363,2363,2363,2363,2363,2363,2363,2363,2363,2352,2348,2348,2346,2346,2345,2345,2345,2345,2344,2344,2344,2344,2344,2344,2344,2353,2353,2359,2359,2359,2359,2359,2359,2359,2359,2359,2359,2359,2359,2359,2359,2359,2351,2351,2346,2346,2342,2342,2342,2343,2344,2344,2346,2346,2349,2349,2351,2351,2352,2352,2353,2353,2354,2354,2354,2354,0,2355,2355,2355,2366,2366,2366,2366,2378,2378,2378,2378,2378,2368,2368,2368,2368,2349,2349,2349,2350,2350,2366,2401,2401,0,0,0,2361,2361,2361,2361,2360,2360,2360,0,2349,2349,2349,0,0,0,0,0,0,0,0,0,0,0,2360,2360,2360,2360,2360,2360,2360,2378,2378,2380,2380,2390,2390,2390,0,0,0,0,0,0,0,0,0,0,0,0,0,0,0,0,0,0,0,0,0,2343,2343,2343,0,0,0,2345,2345,2345,0,2349,2349,2349,2349,2349,0,0,0,0,0,0,2365,2365,2365,2365,2365,2366,2366,2376,2376,2377,2376,2376,2376,2376,2363,2363,2363,0,2364,2364,2364,2364,2364,2364,2363,2363,2363,2363,2362,2362,2360,2360,2360,2360,2360,2370,0,0,0,2370,2370,2370,0,0,0,0,0,2279,2279,2279,0,0,0,0,0,2381,2381,2381,2400,2400,2400,2400,2400,2400,2400,2344,2344,2341,2341,2340,2340,2340,2340,2340,2341,2341,2339,2339,2339,2366,2366,2366,2366,2442,2441,2441,2441,0,0,0,0,0,0,0,0,0,0,0,2391,2391,2391,0,2390,2390,2390,2390,2355,2355,2355,0,0,0,2365,2365,2365,2366,2366,2356,2356,2356,0,2398,2398,2398,0,0,0,0,0,0,0,0,0,0,0,0,0,0,0,0,0,0,0,2381,2381,2375,2375,2374,2374,2374,0,2373,2373,2373,2373,2373,0,0,0,0,0,0,0,0,2421,2421,2418,2418,2408,2408,2396,2396,2396,2399,2399,2429,2415,2415,2415,0,0,0,2354,2354,2353,2353,2353,2353,2353,2354,2354,0,2356,2356,2356,0,2356,2356,2356,0,0,0,0,0,0,0,0,0,0,0,0,0,0,0,0,0,0,0,0,0,0,0,0,0,0,0,0,0,0,0,0,0,0,0,0,0,0,0,0,0,0,2106,2106,2106,0,0,0,0,0,0,0,0,0,0,0,0,0,0,0,0,0,0,0,0,0,0,0,0,0,0,0,0,0,0,0,0,0,0,0,0,0,0,0,0,0,0,0,0,0,0,0,0,0,0,0,0,0,0,0,0,0
0,0,0,0,0,1867,1867,1867,1867,1867,1894,1894,0,0,0,0,0,0,0,0,0,0,0,0,0,0,0,0,0,0,0,0,0,0,0,0,0,0,0,0,0,0,0,0,0,0,0,0,0,0,0,0,0,0,0,0,0,0,0,0,0,0,0,0,0,0,2110,2110,2110,0,0,0,0,0,0,0,0,0,0,0,0,0,0,0,0,0,0,0,0,0,0,0,0,0,0,0,0,0,0,0,0,0,0,0,0,0,0,2364,2364,2364,0,0,0,2361,2361,2342,2339,2337,2337,0,2337,2337,2337,0,0,0,0,0,0,0,0,0,0,0,0,0,0,0,2356,2356,2353,2353,2347,2347,2347,2347,2347,2348,2348,2348,2348,2349,2349,2349,2349,2349,0,0,0,0,0,0,0,0,0,2382,2382,2382,2382,2382,0,0,0,0,0,2330,2330,2330,2330,2330,0,0,0,0,0,0,0,0,2337,2337,2336,2336,2335,2335,2335,0,0,0,2333,2333,2332,2332,2318,2318,2317,2317,2317,2317,2317,2317,2317,2328,2328,2328,2328,2328,2328,2328,2328,2328,2328,2328,2328,2328,2328,2337,2338,2338,2350,2337,2337,2336,2336,2335,2335,2334,2334,2334,2335,2335,2335,2335,0,2335,2335,2328,2328,2328,2328,2328,2328,2328,2328,2328,0,0,0,2319,2319,2319,2319,2319,2319,2320,2320,2320,2320,2321,2321,2334,2334,2334,2334,2335,2335,2342,2342,2349,2349,2350,2350,2368,2368,2368,2349,2349,2349,0,2321,2321,2313,2313,2312,2312,2305,2305,2304,2304,2304,2304,2313,2313,2313,2313,0,0,0,0,0,0,0,0,0,2328,2328,2328,0,2324,2324,2324,2330,2330,2332,2332,2333,2333,2333,2333,2339,2339,2352,2352,2361,2361,2361,2361,2349,2349,2348,2348,2348,2348,2347,2347,2347,2347,2347,2347,2346,2346,2346,2346,2345,2345,2331,2331,2331,2331,2321,2321,2319,2319,2318,2318,2318,2318,2318,2318,2318,2319,2319,2325,2325,2342,2363,2363,2363,2363,2363,2363,2371,2371,2372,2371,2371,2371,2371,2370,2370,2365,2365,2339,2339,2339,2339,2338,2338,2338,2339,2339,2354,2354,2354,2353,2353,2352,2352,2352,2352,2352,2352,2352,2352,2352,2352,2360,2360,2361,2361,2361,2359,2359,2356,2356,2355,2355,2355,2355,2354,2354,2353,2353,2352,2352,2352,2352,2352,2363,2363,2363,2363,2363,2363,2363,2363,2363,2363,2363,2352,2348,2348,2346,2346,2345,2345,2345,2345,2344,2344,2344,2344,2344,2344,2344,2353,2353,2359,2359,2359,2359,2359,2359,2359,2359,2359,2359,2359,2359,2360,2360,2361,2361,2361,2348,2348,2345,2345,2344,2344,2345,2345,2348,2348,2350,2350,2351,2351,2352,2352,2353,2353,2354,2354,2354,2354,0,0,0,2366,2366,2366,2366,2366,2378,2378,2378,2378,2378,2368,2368,2368,2368,2349,2349,2349,2350,2350,2366,0,0,0,0,0,2361,2361,2361,2361,2361,0,0,0,2349,2349,2349,0,0,0,0,0,0,0,0,0,0,0,2360,2360,2360,2360,2360,2360,2360,2378,2378,2380,2380,2390,2390,2390,0,0,0,0,0,0,0,0,0,0,0,0,0,0,0,0,0,0,0,0,0,0,0,0,0,0,0,2345,2345,2345,0,0,0,2349,2349,2349,0,0,0,0,0,0,2365,2365,2365,2365,2365,2366,2366,2376,2376,2377,2377,0,0,0,0,0,0,0,0,0,2364,2364,2364,2364,2363,2363,2363,2363,2363,2363,2360,2360,2360,2360,2360,2370,0,0,0,0,0,0,0,0,0,0,0,2279,2279,2279,0,0,0,0,0,2381,2381,2381,0,2400,2400,2400,2400,2400,0,2344,2344,2341,2341,2340,2340,2340,2340,2340,0,0,2339,2339,2339,0,2366,2366,2366,0,2441,2441,2441,0,0,0,0,0,0,0,0,0,0,0,0,0,0,0,0,0,0,0,2355,2355,2355,0,0,0,2365,2365,2365,2366,2366,2356,2356,2356,0,0,0,0,0,0,0,0,0,0,0,0,0,0,0,0,0,0,0,0,0,0,0,2381,2381,2375,2375,2375,0,0,0,2373,2373,2373,2373,2373,0,0,0,0,0,0,0,0,2421,2421,2418,2418,2408,2408,2396,2396,2396,2399,2399,0,0,0,0,0,0,0,2354,2354,2353,2353,2353,2353,2353,2354,2354,0,2356,2356,2356,0,0,0,0,0,0,0,0,0,0,0,0,0,0,0,0,0,0,0,0,0,0,0,0,0,0,0,0,0,0,0,0,0,0,0,0,0,0,0,0,0,0,0,0,0,0,2106,2106,2106,0,0,0,0,0,0,0,0,0,0,0,0,0,0,0,0,0,0,0,0,0,0,0,0,0,0,0,0,0,0,0,0,0,0,0,0,0,0,0,0,0,0,0,0,0,0,0,0,0,0,0,0,0,0,0,0,0
0,0,0,0,0,0,0,0,0,0,0,0,0,0,0,0,0,0,0,0,0,0,0,0,0,0,0,0,0,0,0,0,0,0,0,0,0,0,0,0,0,0,0,0,0,0,0,0,0,0,0,0,0,0,0,0,0,0,0,0,0,0,0,0,0,0,2110,2110,2110,0,0,0,0,0,0,0,0,0,0,0,0,0,0,0,0,0,0,0,0,0,0,0,0,0,0,0,0,0,0,0,0,0,0,0,0,0,0,0,0,0,0,0,0,2361,2361,2361,2339,2339,2339,0,0,0,0,0,0,0,0,0,0,0,0,0,0,0,0,0,0,0,2356,2356,2353,2353,2347,2347,2347,2347,2347,0,2348,2348,2348,0,0,2349,2349,2349,0,0,0,0,0,0,0,0,0,0,0,0,0,0,0,0,0,0,0,2330,2330,2330,2330,2330,0,0,0,0,0,0,0,0,0,0,2336,2336,2336,0,0,0,0,0,2333,2333,2332,2332,2332,2332,2317,2317,2317,2317,2317,2317,2317,2329,2328,2328,2328,2328,2328,2328,2328,2328,2328,2328,2328,2328,2328,2337,2350,2350,2358,2357,2357,2357,2357,2335,2335,2334,2334,2334,2335,2335,2335,2335,2335,2335,2335,2313,2313,2310,2310,2310,2313,2313,2328,2328,2328,2321,2321,2318,2318,2318,2318,2318,2318,2319,2319,2319,2319,2321,2321,2334,2334,2334,2334,2335,2335,2339,2339,2347,2347,2349,2349,2349,2349,2368,2349,2349,2349,0,2321,2321,2313,2313,2312,2312,2305,2305,2304,2304,2304,2304,2313,2313,2313,2313,2313,2313,0,0,0,0,0,0,0,2328,2328,2328,0,2324,2324,2324,2330,2330,2332,2332,2332,2332,2333,2333,2334,2334,2342,2342,2361,2361,2361,2361,2349,2349,2348,2348,2348,2348,2347,2347,2347,2347,2347,2347,2346,2346,2346,2346,2330,2330,2330,2330,2321,2321,2320,2320,2319,2319,2318,2318,2318,2318,2318,2318,2318,2319,2319,2325,2325,2342,2363,2363,2363,2363,2363,2363,2364,2364,2371,2371,2371,2370,2370,2369,2369,2365,2365,2339,2339,2339,2339,2338,2338,2338,2339,2339,2354,2354,2354,2353,2353,2352,2352,2352,2352,2352,2352,2352,2352,2352,2352,2360,2360,2361,2361,2361,2359,2359,2356,2356,2355,2355,2355,2355,2352,2352,2351,2351,2350,2350,2350,2350,2350,2351,2351,2362,2362,2362,2362,2363,2363,2363,2362,2362,2351,2348,2348,2346,2346,2345,2345,2345,2345,2344,2344,2344,2344,2344,2344,2344,2344,2344,2352,2352,2359,2359,2359,2359,2359,2359,2359,2359,2359,2359,2360,2360,2361,2361,2361,2348,2348,2345,2345,2344,2344,2345,2345,2348,2348,2350,2350,2351,2351,2351,2351,2352,2338,2338,2338,2338,2338,2354,2354,2354,2354,2366,2366,2366,2366,2367,2367,2378,2368,2368,2368,2368,2349,2349,2349,2349,2349,2350,2350,2350,2363,2362,2362,2361,2361,2361,2361,2361,2361,2360,2360,2349,2349,2349,2349,2349,0,0,0,0,0,0,0,0,0,2360,2360,2343,2343,2343,2343,2343,2353,2353,2354,2354,2355,2355,2358,2390,2390,0,0,0,0,0,0,0,0,0,0,0,0,0,0,0,0,0,0,0,0,0,0,0,0,0,0,0,2345,2345,2345,2347,2347,0,2348,2348,2348,0,0,0,0,0,0,2341,2341,2341,2341,2341,2366,2366,2376,2376,2377,2377,0,0,0,0,0,0,0,0,0,2364,2364,2364,2364,2363,2363,2363,2363,2361,2361,2357,2357,2354,2354,2354,2358,2369,2369,0,0,0,2360,2360,2360,0,0,0,2279,2279,2279,0,0,0,0,0,2381,2381,2381,2400,2400,2400,2400,2400,2380,2380,2344,2344,2337,2337,2337,2340,2340,2340,2340,2340,2339,2339,2339,2336,2336,2336,2366,2366,2411,2411,2441,2440,2440,2440,0,0,0,0,0,0,0,0,0,0,0,0,0,2390,2390,2390,2390,2355,2355,2355,0,0,0,2365,2365,2365,2366,2366,2356,2356,2356,0,0,0,0,0,0,0,0,0,0,0,0,0,0,0,0,0,0,0,0,0,0,0,2381,2381,2375,2375,2375,0,0,0,2373,2373,2373,2373,2373,0,0,0,0,0,0,0,0,2418,2418,2408,2408,2390,2390,2390,2390,2390,2390,2390,0,0,0,0,0,0,0,2354,2354,2353,2353,2353,2353,2353,2354,2354,0,2356,2356,2356,0,0,0,0,0,0,0,0,0,0,0,0,0,0,0,0,0,0,0,0,0,0,0,0,0,0,0,0,0,0,0,0,0,0,0,0,0,0,0,0,0,0,0,0,0,0,0,0,0,0,0,0,0,0,0,0,0,0,0,0,0,0,0,0,0,0,0,0,0,0,0,0,0,0,0,0,0,0,0,0,0,0,0,0,0,0,0,0,0,0,0,0,0,0,0,0,0,0,0,0,0,0,0,0,0,0
0,0,0,0,0,0,0,0,0,0,0,0,0,0,0,0,0,0,0,0,0,0,0,0,0,0,0,0,0,0,0,0,0,0,0,0,0,0,0,0,0,0,0,0,0,0,0,0,0,0,0,0,0,0,0,0,0,0,0,0,0,0,0,0,0,0,0,0,0,0,0,0,0,0,0,0,0,0,0,0,0,0,0,0,0,0,0,0,0,0,0,0,0,0,0,0,0,2275,2275,2275,0,0,0,0,0,0,0,0,0,2340,2340,2340,0,2361,2361,2361,2339,2339,2338,2338,2338,2338,2338,0,0,0,0,0,0,0,0,0,0,0,0,0,2327,2327,2327,2327,2327,2347,2347,2347,2346,2346,2346,0,2348,2348,2348,0,0,2349,2349,2349,0,2331,2331,2331,0,0,0,0,0,0,0,0,0,0,0,2328,2328,2325,2325,2319,2319,2319,2319,2318,2318,2318,0,0,0,0,0,0,2349,2349,2336,2336,2335,2335,2335,0,2332,2332,2332,2332,2332,2332,2332,2332,2317,2317,2317,2318,2318,2330,2329,2329,2328,2328,2328,2328,2327,2327,2327,2327,2327,2327,2327,2328,2337,2337,2350,2350,2357,2357,2357,2357,2357,2353,2353,2350,2350,2349,2349,2335,2335,2335,2335,2335,0,2313,2313,2310,2310,2310,2313,2313,2328,2328,2328,2321,2321,2318,2318,2318,2318,2318,2318,2319,2319,2319,2319,2334,2334,2335,2335,2335,2335,2336,2336,2339,2339,2347,2347,2349,2349,2349,2349,0,0,0,0,0,2322,2322,2322,0,2312,2312,2312,2312,2312,2312,2313,2313,2313,2313,2313,2313,2313,2313,0,0,0,0,0,0,0,2329,2329,2329,0,2330,2330,2330,2330,2330,2332,2332,2332,2332,2333,2333,2334,2334,2342,2342,2361,2361,2361,2361,2360,2360,2348,2348,2348,2348,2347,2347,2347,0,0,0,2347,2347,2346,2346,2330,2330,2330,2330,2321,2321,2320,2320,2319,2319,2319,2319,2318,2318,2318,2318,2318,2325,2325,2343,2343,2363,2363,2363,2363,2363,2363,2363,2364,2364,2371,2371,2371,2370,2370,2369,2369,2368,2368,2367,2367,2361,2361,2358,2358,2358,2358,2358,2364,2363,2363,2362,2362,2359,2359,2353,2353,2353,2353,2356,2356,2360,2360,2360,2360,2361,2361,2361,2360,2360,2358,2358,2356,2356,2355,2355,2352,2352,2351,2351,2350,2350,2350,2350,2350,2351,2351,2362,2362,2362,2362,2363,2363,2363,2362,2362,2351,2348,2348,2347,2347,2345,2345,2345,2345,2344,2344,2344,2344,2344,2344,2344,2344,2344,2352,2352,2359,2359,2360,2360,2360,2360,2360,2360,2360,2360,2360,2360,2366,2366,2366,2361,2361,2347,2347,2346,2346,2347,2347,2349,2349,2350,2350,2351,2351,2351,2351,2352,2338,2338,2338,2338,2338,2354,2354,2354,2354,2366,2366,2366,2366,2367,2367,2378,2368,2368,2368,2368,2349,2349,2349,2349,2349,2350,2350,2350,2363,2362,2362,2361,2361,2361,2361,2361,2361,2360,2360,2349,2349,2349,0,0,0,0,0,0,0,0,0,0,0,2360,2360,2343,2343,2343,2343,2343,2353,2353,2354,2354,2355,2355,2358,0,0,0,0,0,0,0,0,0,0,0,0,0,0,0,0,0,0,0,0,0,0,0,0,0,0,0,0,0,0,0,2347,2347,2347,0,2348,2348,2348,0,0,0,0,0,0,2341,2341,2341,2341,2341,0,0,0,0,0,0,0,0,0,0,0,0,0,0,0,0,0,0,0,2364,2364,2363,2363,2361,2361,2357,2357,2354,2354,2354,2358,2369,2369,0,0,0,2360,2360,2360,0,0,0,2279,2279,2279,0,0,0,0,0,0,0,2400,2400,2400,0,2400,2400,2380,2380,2380,0,2337,2337,2337,0,0,0,2340,2340,2339,2339,0,2336,2336,2336,0,2411,2411,2411,0,2440,2440,2440,0,0,0,0,0,0,0,0,0,0,0,0,0,2390,2390,2390,2390,2390,0,0,0,0,0,0,0,0,0,0,0,0,0,0,0,0,0,0,0,0,0,0,0,0,0,0,0,0,0,0,0,0,0,0,0,0,2384,2384,2384,0,0,0,0,0,0,0,2373,2373,2373,0,0,0,0,0,0,0,0,2418,2418,2408,2408,2390,2390,2390,2390,2390,2390,2390,0,0,0,0,0,0,0,0,0,0,0,2354,2354,2354,0,0,0,0,0,0,0,0,0,0,0,0,0,0,0,0,0,0,0,0,0,0,0,0,0,0,0,0,0,0,0,0,0,0,0,0,0,0,0,0,0,0,0,0,0,0,0,0,0,0,0,0,0,0,0,0,0,0,0,0,0,0,0,0,0,0,0,0,0,0,0,0,0,0,0,0,0,0,0,0,0,0,0,0,0,0,0,0,0,0,0,0,0,0,0,0,0,0,0,0,0,0,0,0,0,0,0,0,0,0,0,0
0,0,0,0,0,0,0,0,0,0,0,0,0,0,0,0,0,0,0,0,0,0,0,0,0,0,0,0,0,0,0,0,0,0,0,0,0,0,0,0,0,0,0,0,0,0,0,0,0,0,0,0,0,0,0,0,0,0,0,0,0,0,0,0,0,0,0,0,0,0,0,0,0,0,0,0,0,0,0,0,0,0,0,0,0,0,0,0,0,0,0,0,0,0,0,0,0,2275,2275,2275,0,0,0,0,0,0,0,0,0,2340,2340,2340,0,2361,2361,2361,0,0,2338,2338,2338,2338,2338,0,0,0,0,0,0,0,0,0,0,0,0,0,2327,2327,2327,2327,2327,2347,2347,0,2346,2346,2346,0,0,0,0,0,0,2349,2349,2349,0,2331,2331,2331,0,0,0,0,0,0,0,0,0,0,0,2328,2328,2325,2325,2319,2319,2319,2319,2318,2318,2318,0,0,0,0,0,0,2349,2349,2349,0,2335,2335,2335,0,2332,2332,2332,2332,2332,2332,2332,2332,2332,2332,2332,2333,2333,2335,2335,2336,2328,2328,2328,2328,2327,2327,2327,2327,2327,2327,2327,2336,2351,2351,2357,2357,2357,2357,2357,2357,2357,2356,2356,2352,2352,2352,0,0,0,0,0,0,0,2313,2313,2309,2309,2309,2313,2313,2328,2328,2328,2319,2319,2317,2317,2311,2311,2314,2314,2317,2317,2318,2318,2334,2334,2335,2335,2335,2335,2336,2336,2339,2339,2347,2347,2348,2348,2349,2349,2349,2349,2349,2349,0,2322,2322,2322,2323,2312,2312,2312,2312,2312,2312,2313,2313,2313,2313,2313,2313,2313,2313,0,2363,2363,2363,0,2363,2363,2329,2329,2329,2330,2330,2330,2330,2330,2330,2332,2332,2332,2332,2333,2333,2333,2333,2334,2334,2342,2342,2361,2361,2360,2360,2348,2348,2348,2348,2347,2347,2347,0,2347,2347,2347,2347,2346,2346,2330,2330,2322,2322,2321,2321,2320,2320,2319,2319,2319,2319,2318,2318,2318,2318,2318,2325,2325,2343,2343,2363,2363,2363,2363,2363,2363,2363,2363,2363,2366,2366,2370,2370,2370,2369,2369,2368,2368,2367,2367,2361,2361,2358,2358,2358,2358,2358,2364,2363,2363,2362,2362,2359,2359,2353,2353,2353,2353,2356,2356,2359,2359,2360,2360,2361,2361,2361,2360,2360,2358,2358,2356,2356,2352,2352,2350,2350,2349,2349,2349,2349,2349,2349,2349,2349,2349,2361,2361,2362,2362,2362,2362,2362,2362,2362,2351,2348,2348,2347,2347,2345,2345,2345,2345,2344,2344,2344,2344,2343,2343,2343,2343,2343,2343,2343,2345,2345,2359,2359,2359,2359,2360,2360,2360,2360,2360,2360,2366,2366,2366,2361,2361,2347,2347,2346,2346,2347,2347,2349,2349,2350,2350,2351,2351,2351,2338,2338,2316,2316,2316,2317,2317,2323,2323,2353,2353,2353,2353,2366,2366,2367,2367,2367,2367,2368,2348,2348,2336,2336,2336,2337,2337,2337,2337,2349,2352,2352,2362,2361,2361,2361,2361,2361,2361,2360,2360,2349,2349,2349,2349,2349,2349,2349,2349,2349,0,0,0,0,0,2343,2343,2343,2343,2330,2330,2330,2330,2330,2331,2331,2332,2332,2356,2358,2358,0,0,0,0,0,0,0,0,0,2338,2338,2338,0,0,0,0,0,0,0,0,0,0,0,0,0,0,0,0,0,2347,2347,2347,2348,2348,2348,2348,0,0,0,0,0,0,2341,2341,2323,2323,2323,2323,2323,0,0,0,0,0,0,0,0,0,0,0,0,0,0,0,0,0,2364,2364,2363,2363,2361,2361,2354,2354,2352,2352,2352,2352,2369,2369,0,2360,2360,2360,2360,2360,0,0,0,2279,2279,2279,2279,2279,2279,2279,0,0,0,2400,2400,2400,0,2400,2400,2380,2380,2380,0,2337,2337,2337,0,0,0,2340,2340,2339,2333,2333,2332,2332,2332,2334,2334,2411,2411,2411,2411,2411,2411,0,0,0,0,0,0,0,0,0,0,0,2390,2390,2390,2390,2390,2390,2390,0,0,0,0,0,0,0,0,0,0,0,0,0,0,0,0,0,0,0,0,0,0,0,0,0,0,0,0,0,0,0,0,0,0,0,0,2384,2384,2384,0,0,0,0,0,2373,2373,2373,2373,2373,0,0,0,0,0,0,0,0,2408,2408,2389,2389,2389,2390,2389,2389,2389,2389,2389,0,0,0,0,0,2354,2354,2354,2354,2354,2354,2354,2354,2354,0,0,0,0,0,0,0,0,0,0,0,0,0,0,2324,2324,2324,0,0,0,0,0,0,0,0,0,0,0,0,0,0,0,0,0,0,0,0,0,0,0,0,0,0,0,0,0,0,0,0,0,0,0,0,0,0,0,0,0,0,0,0,0,0,0,0,0,0,0,0,0,0,0,0,0,0,0,0,0,0,0,0,0,0,0,0,0,0,0,0,0,0,0,0,0,0,0,0,0,0,0,0,0,0,0,0,0,0,0,0,0,0,0
0,0,0,0,0,0,0,0,0,0,0,0,0,0,0,0,0,0,0,0,0,0,0,0,0,0,0,0,0,0,0,0,0,0,0,0,0,0,0,0,0,0,0,0,0,0,0,0,0,0,0,0,0,0,0,0,0,0,0,0,0,0,0,0,0,0,0,0,0,0,0,0,0,0,0,0,0,0,0,0,0,0,0,0,0,0,0,0,0,0,0,0,0,0,0,2275,2275,2275,2275,2275,2275,2275,0,0,0,2313,2313,2313,2315,2315,2332,2332,2339,2339,2339,2339,2339,0,2338,2338,2338,2338,2338,0,0,0,0,0,0,0,0,0,2324,2324,2324,2326,2326,2327,2327,2327,2327,2347,2328,2328,2328,2346,2346,0,0,0,0,0,0,2349,2349,2349,0,2331,2331,2331,2331,2331,0,0,0,0,0,0,0,0,0,2328,2328,2319,2319,2318,2318,2318,2319,2311,2311,2311,0,0,0,0,0,0,2349,2349,2333,2333,2333,2335,2331,2331,2331,2331,2331,2331,2331,2331,2331,2332,2332,2332,2332,2333,2333,2335,2335,2336,2328,2328,2328,2328,2327,2327,2327,2327,2327,2327,2327,2336,2350,2350,2357,2357,2357,2357,2357,2356,2356,2355,2355,2351,2351,2350,2350,2350,0,0,0,2347,2347,2327,2327,2309,2309,2309,2328,2328,0,2328,2328,2319,2319,2317,2317,2311,2311,2314,2314,2317,2317,2318,2318,2335,2335,2335,2335,2335,2335,2337,2337,2344,2344,2348,2348,2348,2348,2348,2348,2349,2349,2349,2349,2349,2349,0,2323,2323,2323,2323,2323,2323,2323,2323,2333,2333,2333,2313,2313,2313,2313,2313,0,2363,2363,2363,0,2363,2363,2330,2330,2330,2330,2330,2330,2330,2331,2331,2332,2332,2332,2332,2333,2333,2333,2333,2334,2334,2342,2342,2361,2361,2361,0,2348,2348,2348,0,0,0,0,0,2347,2347,2347,2348,2348,2348,2343,2343,2322,2322,2321,2321,2320,2320,2320,2320,2319,2319,2319,2319,2319,2321,2321,2342,2342,2363,2363,2364,2364,2363,2363,2363,2363,2363,2363,2363,2366,2366,2370,2370,2370,2369,2369,2368,2368,2367,2367,2367,2367,2366,2366,2366,2366,2365,2365,2364,2364,2363,2363,2361,2361,2359,2359,2359,2358,2358,2358,2359,2359,2360,2360,2361,2361,2361,2360,2360,2359,2359,2357,2357,2352,2352,2350,2350,2349,2349,2349,2349,2349,2349,2349,2349,2349,2361,2361,2362,2362,2362,2362,2362,2362,2362,2352,2351,2351,2349,2349,2346,2346,2345,2345,2344,2344,2344,2344,2343,2343,2343,2343,2343,2343,2343,2345,2345,2359,2359,2359,2359,2360,2360,2360,2360,2362,2362,2366,2366,2366,2366,2366,2360,2360,2348,2348,2349,2349,2350,2350,2350,2350,2351,2351,2351,2338,2338,2316,2316,2316,2317,2317,2323,2323,2353,2353,2353,2353,2367,2367,2367,2367,2367,2367,2368,2348,2348,2336,2336,2336,2337,2337,2337,2337,2349,2352,2352,2362,2361,2361,2361,2361,2361,2361,2361,2361,2360,2360,2349,2349,2349,2349,2349,2349,2349,0,0,0,0,0,2343,2343,2343,2343,2330,2330,2330,2330,2330,2331,2331,2332,2332,2356,2358,2358,0,0,0,0,0,0,0,0,0,2338,2338,2338,0,0,0,0,0,0,0,0,0,0,0,0,0,0,0,0,0,0,0,2348,2348,2348,0,0,0,0,0,0,0,0,0,0,2323,2323,2323,2323,2323,0,0,0,0,0,0,0,0,0,0,0,0,0,0,0,0,0,0,0,2377,2377,2365,2365,2354,2354,2352,2352,2352,2352,0,0,0,2360,2360,2360,0,0,0,0,0,2279,2279,2279,2279,2279,2279,2279,0,0,0,0,0,0,0,0,0,0,0,0,0,0,0,0,0,0,0,0,0,0,2333,2333,2332,2332,2332,2334,2334,0,2411,2411,2411,2411,2411,0,0,0,0,0,0,0,0,0,0,0,2390,2390,2390,0,0,0,0,0,0,0,0,0,0,0,0,0,0,0,0,0,0,0,0,0,0,0,0,0,0,0,0,0,0,0,0,0,0,0,0,0,0,0,0,0,0,0,0,0,0,0,0,2373,2373,2373,2373,2373,0,0,0,0,0,0,0,0,2408,2408,2389,2389,2389,0,2389,2389,2389,2389,2389,0,0,0,0,0,2354,2354,2354,2354,2354,2354,2354,0,0,0,0,0,0,0,0,0,0,0,0,0,0,0,0,2324,2324,2324,0,0,0,0,0,0,0,0,0,0,0,0,0,0,0,0,0,0,0,0,0,0,0,0,0,0,0,0,0,0,0,0,0,0,0,0,0,0,0,0,0,0,0,0,0,0,0,0,0,0,0,0,0,0,0,0,0,0,0,0,0,0,0,0,0,0,0,0,0,0,0,0,0,0,0,0,0,0,0,0,0,0,0,0,0,0,0,0,0,0,0,0,0,0,0
0,0,0,0,0,0,0,0,0,0,0,0,0,0,0,0,0,0,0,0,0,0,0,0,0,0,0,0,0,0,0,0,0,0,0,0,0,0,0,0,0,0,0,0,0,0,0,0,0,0,0,0,0,0,0,0,0,0,0,0,0,0,0,0,0,0,0,0,0,0,0,0,0,0,0,0,0,0,0,0,0,0,0,0,0,0,0,0,0,0,0,0,0,0,0,2275,2275,2275,2275,2275,2275,2275,0,0,0,2313,2313,2313,2315,2315,2332,2332,2339,2339,2339,2339,2339,0,0,0,0,0,0,0,0,0,0,0,0,0,0,0,2324,2324,2324,2326,2326,0,0,0,0,0,2328,2328,2328,0,0,0,0,0,0,0,0,2349,2349,2349,0,2331,2331,2331,2331,2331,0,0,0,0,0,0,0,0,0,2328,2328,2319,2319,2318,2318,2318,0,2311,2311,2311,0,0,0,0,0,0,0,0,2333,2333,2333,0,2331,2331,2331,2331,2331,2331,2331,2331,2331,2332,2332,2332,2332,2334,2334,0,0,0,2338,2338,2328,2328,2327,2327,2327,2327,2327,2327,2327,2337,2350,2350,2357,2357,2357,2357,2357,2356,2356,2355,2355,2351,2351,2350,2350,2350,0,0,0,2347,2347,2347,0,2309,2309,2309,0,0,0,2328,2328,2319,2319,2308,2308,2308,2308,2309,2309,2310,2310,2316,2316,2335,2335,2336,2336,2336,2336,2342,2342,2362,2362,2362,2348,2348,2348,2348,2348,2349,2349,2349,2349,2349,2349,0,2323,2323,2323,2323,2323,2323,2323,2323,2333,2333,2333,2313,2313,2313,2313,2313,0,0,0,0,0,0,0,2330,2330,2330,2330,2330,2330,2330,2331,2331,2332,2332,2332,2332,2333,2333,2333,2333,2333,2333,2337,2337,2361,2361,2361,0,2348,2348,2347,2347,2347,0,2347,2347,2347,2347,2347,2348,2348,2348,2343,2343,2322,2322,2321,2321,2320,2320,2320,2320,2319,2319,2319,2319,2319,2321,2321,2342,2342,2363,2363,2364,2364,2363,2363,2363,2363,2362,2362,2361,2361,2361,2364,2364,2369,2368,2368,2368,2368,2367,2367,2367,2367,2366,2366,2366,2366,2365,2365,2364,2364,2363,2363,2361,2361,2359,2359,2359,2358,2358,2358,2359,2359,2360,2360,2361,2361,2361,2360,2360,2359,2359,2349,2349,2349,2349,2349,2349,2349,2349,2349,2349,2349,2349,2349,2349,2349,2360,2360,2361,2361,2361,2361,2361,2361,2361,2352,2351,2351,2349,2349,2346,2346,2345,2345,2344,2344,2343,2343,2343,2343,2334,2334,2333,2333,2333,2335,2335,2346,2346,2359,2359,2359,2359,2359,2359,2360,2360,2366,2366,2366,2364,2364,2359,2359,2348,2348,2349,2349,2350,2350,2350,2350,2351,2338,2338,2318,2318,2316,2316,2316,2316,2316,2316,2316,2322,2322,2351,2351,2351,2350,2350,2349,2349,2349,2349,2336,2336,2336,2336,2336,2336,2336,2337,2337,2339,2350,2350,2359,2359,2361,2361,2361,2361,2361,2361,2361,2360,2360,2349,2349,2349,2349,2349,2349,2349,2349,2349,0,2358,2358,2343,2343,2330,2330,2330,2330,2330,2330,2330,2331,2331,2331,2331,2332,2356,2356,0,2361,2361,2361,2362,2339,2339,2339,0,2338,2338,2337,2337,2336,2336,2335,2335,2335,0,0,0,0,0,0,0,0,0,2349,2349,2349,0,2347,2347,2346,2346,2346,0,0,0,0,0,0,0,0,2323,2323,2323,2323,2323,0,0,0,0,0,2354,2354,2354,2365,2365,2378,2378,0,0,0,0,0,0,0,2377,2377,2365,2365,2354,2354,2351,2351,2351,2350,2350,2350,2360,2360,2360,2360,0,0,0,0,0,2279,2279,2279,2279,2279,2279,2279,0,0,0,0,0,0,0,0,0,0,0,2333,2333,2333,0,0,0,0,0,0,0,0,2333,2333,2331,2331,2331,2334,2334,2346,2346,2411,2389,2389,2389,0,0,0,0,0,0,0,0,0,0,0,2390,2390,2390,0,0,0,0,0,0,0,0,0,0,0,0,0,0,0,0,0,0,0,0,0,0,0,0,0,0,0,0,0,0,0,0,0,0,0,0,0,0,0,0,0,0,2388,2388,2388,0,0,0,2373,2373,2373,2373,2373,2374,2374,0,0,0,0,0,0,2408,2408,2389,2389,2389,2389,2389,2389,2389,2389,2389,0,0,0,0,0,2354,2354,2354,2354,2354,2354,2354,2374,2374,2374,2374,0,0,0,0,0,0,0,0,0,0,0,2330,2324,2324,2324,2336,2336,0,0,0,0,0,0,0,0,0,0,0,0,0,0,0,0,0,0,0,0,0,0,0,0,0,0,0,0,0,0,0,0,0,0,0,0,0,0,0,0,0,0,0,0,0,0,0,0,0,0,0,0,0,0,0,0,0,0,0,0,0,0,0,0,0,0,0,0,0,0,0,0,0,0,0,0,0,0,0,0,0,0,0,0,0,0,0,0,0,0,0,0,0
